2550.2991	2552.2383	2554.3298	2556.8364	2551.7241	2539.0759	2529.7529	2515.7434	2499.9639	2503.7297	2511.7856	2527.4822	2541.9802	2546.5901	2546.5435	2542.5479	2536.1387	2528.3398	2523.7383	2506.3809	2475.7686	2471.9453	2470.4749	2472.4336	2477.8604	2490.1506	2502.1833	2507.6206	2509.5808	2515.5540	2520.5967	2527.1926	2532.3794	2540.1191	2545.2605	2551.1042	2562.4780	2571.1191	2576.9763	2580.3418	2585.5820	2589.0862	2595.3516	2598.2009	2599.3032	2598.0798	2601.5317	2606.1311	2607.7937	2585.6667	2576.5073	2569.2908	2562.0588	2555.8682	2540.8608	2532.7751	2523.7139	2508.7002	2497.2910	2480.4600	2485.7705	2483.6057	2489.3760	2502.2534	2517.4224	2523.0198	2523.1003	2519.2776	2510.2351	2497.1799	2496.9373	2501.9363	2509.2859	2511.6995	2502.7095	2479.1033	2457.5103	2437.5112	2422.1770	2414.5491	2435.2246	2442.9927	2416.2935	2405.0620	2400.7749	2412.0151	2412.6189	2437.2229	2461.7798	2472.4060	2464.5415	2458.3098	2472.2004	2496.9146	2517.0361	2533.1584	2553.9202	2577.0962	2586.1543	2586.4221	2577.1663	2553.6763	2533.7876	2526.0505	2513.4648	2500.8110	2500.4419	2515.1558	2528.9458	2541.9063	2549.1157	2548.4426	2546.3210	2546.4978	2550.2229	2548.8853	2553.0896	2559.4192	2556.3274	2549.8066	2564.4727	2590.5232	2638.8113	2618.8992	2598.4038	2579.6475	2564.0979	2549.9302	2535.3022	2525.9812	2508.4104	2504.2686	2510.1099	2531.1672	2542.3308	2553.2659	2560.9353	2559.5520	2548.1602	2537.5432	2531.5000	2526.2683	2516.0923	2500.3621	2472.3916	2468.1277	2475.1565	2465.7786	2447.1453	2427.6763	2424.6509	2447.3071	2454.5359	2441.7424	2420.1194	2398.8665	2381.4885	2375.4941	2381.3799	2377.8521	2370.6055	2371.4797	2393.3992	2397.2705	2394.9768	2402.4934	2414.6716	2406.1167	2382.9807	2355.4519	2331.7017	2333.1035	2335.2336	2332.5449	2327.3176	2326.9766	2310.8047	2292.4185	2265.0557	2240.0261	2245.7544	2225.0225	2207.6614	2198.3589	2201.7212	2228.2742	2251.5151	2274.7278	2297.9924	2310.2639	2310.1750	2306.1633	2298.8184	2294.5520	2290.1099	2285.0798	2276.5193	2266.3928	2248.4114	2233.5857
2546.5903	2549.9155	2554.4614	2559.8752	2551.9412	2544.5999	2538.0313	2520.6660	2501.6770	2519.1658	2531.6519	2540.8462	2545.2473	2545.7617	2543.5269	2539.2800	2532.9158	2522.8767	2505.2236	2487.0417	2471.3125	2471.6616	2469.0752	2474.2500	2478.8442	2484.1299	2489.7090	2495.7830	2509.4507	2520.7041	2529.4473	2533.6509	2540.1226	2545.8564	2552.0786	2558.9438	2562.3296	2569.5007	2575.1555	2580.0586	2584.2654	2588.7559	2592.6042	2596.0505	2598.4502	2595.1450	2594.5908	2595.2942	2591.9275	2577.9253	2571.2874	2563.9021	2558.0039	2547.2920	2533.4307	2524.5676	2507.5354	2499.1570	2488.8398	2496.6323	2502.7891	2496.8906	2503.0481	2500.3789	2506.3718	2512.7944	2517.2136	2517.9731	2514.2258	2510.9546	2510.9648	2516.4871	2519.5261	2514.2437	2497.9744	2480.8506	2460.8877	2438.5488	2421.0076	2435.6890	2456.0972	2462.7769	2445.0029	2427.9219	2420.3933	2427.9551	2438.6665	2431.2566	2447.1799	2453.8508	2452.2817	2473.5151	2468.0918	2492.0073	2507.7544	2537.0637	2557.7559	2575.1550	2592.6001	2589.5032	2589.1797	2580.2900	2565.1641	2559.0208	2540.8191	2524.3237	2519.9514	2523.4058	2539.9009	2554.9048	2561.9475	2565.9465	2569.4192	2568.7693	2570.9846	2571.8347	2570.2668	2572.7158	2572.9744	2570.7214	2565.7476	2581.1118	2601.9448	2620.5999	2614.0525	2595.5105	2579.8223	2565.7266	2556.7573	2545.6338	2535.9502	2529.7202	2519.2625	2517.6143	2535.9885	2560.0830	2564.1765	2567.7559	2565.5271	2561.9380	2556.7495	2548.5630	2541.7603	2521.8735	2507.5928	2503.9487	2499.8579	2484.8838	2470.7856	2440.3425	2449.2671	2453.2876	2458.4871	2440.7454	2430.8574	2417.5027	2405.4382	2404.1311	2409.5022	2400.9695	2393.7009	2389.4585	2401.8237	2405.3386	2411.8645	2415.9470	2419.2041	2412.2341	2386.6348	2356.3606	2329.9297	2307.9136	2311.9927	2315.2297	2301.6550	2304.9167	2296.2751	2277.1084	2263.9863	2240.3245	2228.3477	2213.9355	2208.1287	2218.1797	2204.1848	2226.5144	2251.0957	2271.3914	2290.2246	2309.9194	2313.9128	2311.5161	2305.8452	2299.7893	2293.8459	2285.6921	2276.4553	2261.8879	2257.1738	2250.4480
2543.9587	2543.6606	2556.1680	2566.2241	2556.5645	2547.8040	2536.4443	2517.8411	2502.8618	2525.7158	2543.9653	2546.4231	2549.7153	2547.3027	2541.7825	2535.4890	2527.8074	2510.8596	2490.2947	2473.1238	2472.0396	2473.3340	2469.8740	2481.3914	2490.5361	2494.9585	2497.8835	2503.5833	2518.7158	2528.0793	2534.2129	2535.9028	2543.2791	2548.9431	2552.8899	2558.2988	2564.3501	2569.7285	2581.0071	2582.8091	2588.5688	2592.0459	2597.1724	2599.9609	2598.0708	2593.7285	2591.7883	2589.3027	2583.4858	2577.0474	2571.0254	2561.6711	2556.1868	2541.8132	2527.0896	2516.2439	2508.7124	2507.0151	2511.4995	2512.7390	2517.2253	2515.3569	2514.3137	2508.9675	2508.4465	2511.3765	2517.1277	2523.2058	2526.7500	2532.9307	2533.9744	2535.1353	2535.6855	2523.9053	2501.6660	2481.5891	2464.8901	2444.4417	2421.3818	2455.9065	2471.5364	2478.1150	2471.1025	2454.6240	2448.6660	2453.8821	2458.1565	2440.2114	2441.9968	2449.8818	2464.8264	2479.5244	2476.9431	2477.5657	2496.3604	2522.2561	2542.0994	2550.7998	2563.4470	2576.5920	2575.2424	2575.7183	2577.0178	2577.2195	2557.7932	2543.1689	2546.7490	2546.1038	2552.2258	2559.9182	2570.4517	2575.7168	2584.9951	2593.7883	2594.9578	2590.3389	2587.2136	2588.5322	2588.8340	2589.0078	2585.9866	2580.2468	2589.9197	2606.8811	2624.7246	2609.5349	2593.4465	2583.4744	2574.5823	2564.5586	2566.4573	2559.5244	2552.1533	2534.5261	2531.6794	2542.4399	2561.2454	2576.8931	2577.6938	2574.2576	2570.7207	2567.4688	2558.7607	2546.4470	2540.2429	2529.8357	2515.1204	2504.4441	2480.6233	2474.5593	2479.0823	2476.7666	2473.2415	2459.8320	2460.1824	2449.9993	2431.7532	2435.4915	2432.4587	2425.9048	2416.3755	2410.5310	2416.5352	2414.0366	2413.0339	2409.6997	2398.7986	2392.9304	2387.7532	2364.4919	2335.4666	2306.4614	2285.8809	2295.8765	2281.7227	2279.7922	2273.8088	2257.3032	2242.5728	2225.9568	2214.8193	2216.8071	2229.3220	2233.5190	2212.1077	2222.2778	2240.9634	2258.2891	2282.4849	2302.9729	2312.6338	2315.4854	2312.0520	2306.3760	2300.1626	2292.4875	2287.0081	2281.0522	2273.7495	2262.3142
2540.3501	2539.2092	2553.5972	2565.0955	2553.6926	2542.2434	2529.1619	2511.1143	2512.6924	2536.8699	2550.4236	2552.3052	2553.2825	2547.2876	2540.6489	2532.6851	2519.4834	2503.2141	2484.6821	2473.3174	2472.8076	2471.7278	2476.2598	2501.9897	2507.9114	2509.8208	2511.7053	2518.2151	2522.2649	2525.5825	2530.4163	2535.9639	2541.7876	2549.2012	2555.5947	2562.3745	2569.7808	2575.3320	2578.9941	2582.6372	2587.1577	2590.5115	2593.2009	2597.8635	2600.4648	2597.0674	2592.6340	2588.4001	2583.1328	2574.5164	2569.4070	2561.5398	2554.1021	2537.6794	2524.9775	2520.1633	2526.3728	2525.7026	2522.1243	2527.0923	2531.1707	2528.4924	2526.3259	2519.9358	2515.8948	2517.3308	2521.3159	2530.1501	2536.7673	2550.1851	2554.9656	2556.1062	2553.5127	2528.4080	2505.1238	2485.9221	2465.6079	2444.7991	2430.1140	2459.0696	2486.1353	2501.1128	2501.4768	2483.2930	2474.7083	2469.7410	2468.9929	2455.1443	2457.2546	2469.5801	2481.0879	2490.6890	2485.3921	2480.0632	2491.5630	2504.1777	2519.2939	2528.9150	2541.5330	2552.2769	2556.2419	2561.3423	2565.1602	2567.0571	2568.6956	2562.0444	2564.3540	2568.2864	2568.4534	2570.0698	2575.4644	2588.1621	2598.3271	2614.7129	2620.7695	2611.8386	2604.0645	2600.2612	2599.3335	2598.1138	2598.4678	2594.7683	2592.8735	2598.5510	2610.1340	2616.4731	2605.9888	2597.2122	2587.1689	2578.8032	2580.6750	2578.4973	2576.4561	2562.4966	2553.4116	2555.0999	2554.8083	2578.4463	2582.4124	2582.8376	2580.8684	2575.7849	2567.6365	2559.7146	2551.5891	2543.1672	2534.9663	2511.2700	2496.7695	2500.0405	2505.1118	2499.6985	2489.8560	2485.5337	2485.9983	2467.2402	2459.8284	2458.6541	2454.3413	2447.8540	2434.1372	2434.5220	2429.3223	2426.6001	2415.7332	2395.1702	2375.4761	2364.5164	2364.2947	2353.1428	2330.2292	2305.2415	2281.8896	2270.5554	2268.1409	2254.4753	2247.2266	2232.2488	2225.5120	2226.4883	2237.0684	2244.8962	2252.1392	2248.6196	2229.7175	2215.1069	2238.1343	2259.4839	2285.1560	2304.0110	2315.3291	2320.3523	2319.0210	2314.7366	2309.8291	2303.9578	2297.8000	2290.9971	2282.3259	2271.6982
2543.8647	2532.6362	2542.5229	2553.7544	2546.0349	2538.1289	2520.5256	2507.9609	2519.4429	2539.4507	2553.8994	2557.0391	2553.8711	2546.8135	2538.9377	2532.0586	2511.5725	2490.3086	2477.0774	2473.6091	2474.5356	2470.7119	2492.6772	2516.7429	2520.3950	2520.7151	2520.7046	2525.1404	2531.7922	2536.7979	2539.9534	2544.4832	2550.1375	2557.1182	2564.6365	2571.8384	2573.3525	2581.6606	2583.2610	2585.3896	2588.7688	2594.6938	2594.9087	2598.9573	2601.3723	2601.6226	2595.1794	2590.0981	2585.7361	2575.6165	2569.7625	2558.5869	2547.2859	2534.8232	2530.2788	2534.3684	2537.2402	2533.2402	2535.3696	2537.8953	2539.1978	2540.4507	2539.3804	2533.7349	2528.9592	2527.2744	2527.6626	2529.0762	2533.8213	2538.6672	2545.1995	2546.5415	2540.5493	2521.0730	2494.0852	2475.0171	2461.8345	2435.0337	2436.7673	2465.4863	2491.3862	2510.7312	2516.3135	2506.4858	2497.9460	2487.7925	2480.4082	2466.1902	2473.9067	2485.3149	2490.0620	2496.4292	2496.2056	2483.7522	2489.0647	2499.7375	2506.4248	2514.4348	2524.0393	2532.0645	2537.4666	2543.3865	2554.0847	2557.0144	2563.7813	2567.9177	2573.4651	2575.7729	2579.6443	2582.4138	2581.1990	2596.8318	2612.9260	2621.4272	2637.7822	2631.3926	2621.3552	2618.0500	2614.0696	2614.0530	2611.5896	2609.8589	2608.9480	2607.6694	2611.6650	2612.1721	2610.7739	2605.3262	2597.1482	2592.2551	2592.1970	2589.0242	2588.1536	2581.3818	2582.4519	2580.3987	2568.3521	2565.8909	2578.5215	2584.4255	2585.4714	2580.8960	2574.7522	2568.4036	2562.2058	2553.4697	2540.6479	2523.2815	2520.4348	2521.2366	2520.8542	2517.7161	2507.9602	2505.1333	2498.3943	2492.8303	2486.0527	2479.2026	2471.1416	2462.2024	2454.3989	2450.9966	2443.6587	2440.6067	2427.1116	2402.5911	2377.9299	2346.7727	2334.8870	2328.8374	2309.4792	2287.3855	2268.2959	2264.4277	2260.6301	2245.7275	2237.0378	2240.9761	2249.4504	2250.6489	2265.7959	2271.0139	2273.0588	2262.3494	2243.8916	2226.3430	2234.9863	2261.4575	2288.3347	2308.4629	2318.0151	2324.1775	2327.7659	2325.0481	2319.4473	2311.9521	2303.6865	2288.3586	2272.0210	2259.8198
2542.5298	2537.1953	2528.8152	2536.4556	2532.4805	2530.6504	2515.8567	2510.5061	2530.9326	2546.9746	2554.4348	2553.5967	2551.5532	2546.8264	2537.9963	2513.8386	2502.7354	2479.1604	2476.6016	2474.0500	2473.7764	2476.1265	2495.9028	2510.7434	2513.7197	2512.3911	2514.4094	2520.3667	2532.9502	2542.5894	2547.5986	2554.3481	2558.9478	2567.6064	2569.7791	2574.4126	2578.3713	2581.8474	2583.5959	2585.7996	2588.7549	2591.5190	2592.5669	2597.7695	2597.9954	2600.3579	2593.5891	2590.1465	2587.2842	2576.6877	2570.8970	2560.5164	2546.5427	2543.0105	2543.4756	2549.4685	2550.1899	2545.4409	2547.6418	2551.1755	2550.0720	2552.3296	2551.7593	2547.5100	2542.3408	2538.6736	2537.1929	2529.7993	2526.1301	2527.9287	2532.0847	2531.3884	2523.5205	2502.0161	2480.0339	2459.2571	2443.2820	2436.7886	2434.8577	2456.8459	2483.4683	2506.5549	2522.9033	2523.0237	2516.0891	2508.6228	2495.9978	2485.6226	2482.2288	2492.6423	2503.7754	2504.6125	2504.2380	2495.3027	2486.3774	2489.3103	2495.2354	2502.2510	2508.6753	2516.4150	2520.7686	2527.7415	2534.8496	2546.8452	2566.5620	2572.2063	2575.2837	2578.0161	2581.0181	2586.4243	2589.8618	2596.0752	2605.3679	2624.9517	2633.7075	2639.2925	2639.9048	2634.0417	2627.2317	2626.8879	2626.1094	2623.0427	2622.2102	2622.7715	2621.4563	2617.5864	2613.4248	2610.8049	2608.2278	2604.5347	2602.6089	2596.8645	2594.4460	2588.3950	2598.1807	2593.9434	2577.9519	2573.1370	2573.6802	2582.0608	2587.4751	2588.2261	2589.2368	2582.8032	2571.8652	2559.5479	2547.6724	2542.7117	2537.4226	2539.8140	2536.3223	2531.1714	2528.8560	2523.7383	2514.9705	2506.9448	2500.2146	2492.4180	2481.4536	2475.1682	2472.0432	2470.3110	2462.6907	2455.6360	2443.9756	2419.2207	2379.5222	2347.3306	2315.6008	2301.3281	2286.6638	2270.8760	2266.0063	2262.1389	2253.6863	2248.5889	2246.2622	2256.2666	2273.8711	2273.7649	2274.8215	2286.7402	2287.5051	2268.5442	2254.1929	2247.7292	2228.0496	2257.6953	2282.2766	2297.2551	2313.4246	2329.9285	2340.7966	2334.3613	2328.4988	2319.9001	2309.0972	2294.2095	2283.5557	2276.0166
2539.3887	2538.4905	2532.1921	2522.6045	2519.3049	2516.9561	2510.9602	2524.4070	2537.3755	2547.9377	2553.6594	2552.4482	2548.5464	2543.6169	2531.8777	2506.8499	2484.2827	2477.2930	2474.0500	2474.2312	2473.1580	2476.4402	2481.6511	2490.1155	2498.4487	2499.9805	2502.5588	2515.7302	2532.2520	2545.2988	2561.6431	2562.8130	2563.6553	2568.5740	2573.5681	2576.8862	2580.9685	2584.9287	2586.3035	2588.0242	2590.3965	2591.3606	2591.7722	2592.9624	2594.4900	2594.9182	2590.0332	2588.1499	2588.3220	2584.1714	2572.8167	2566.5203	2554.5364	2561.0264	2559.4258	2560.3098	2559.7480	2558.9080	2559.7327	2561.8528	2561.5930	2562.6843	2564.2778	2562.3501	2552.6008	2541.0378	2529.9128	2525.7317	2519.4458	2518.2410	2521.3960	2521.4653	2509.5488	2490.1807	2467.3591	2442.1719	2454.7275	2461.4170	2446.5657	2444.7297	2473.8518	2498.5933	2514.9177	2524.0674	2530.0452	2518.5134	2510.9482	2502.9226	2497.3335	2501.1453	2504.0271	2512.5029	2507.1904	2494.6479	2493.4661	2497.2063	2497.7825	2499.4807	2504.6216	2509.3606	2516.6755	2517.2661	2524.2441	2538.8394	2551.1677	2563.5952	2570.1746	2571.5337	2575.9268	2585.1113	2591.7305	2598.7261	2606.6301	2616.0303	2626.7188	2640.3870	2666.7466	2650.6938	2637.6694	2636.7012	2635.5334	2633.2227	2632.2341	2631.5764	2631.0752	2627.4624	2618.9614	2615.2031	2613.7207	2613.6108	2612.5437	2605.4048	2599.2356	2596.6113	2604.4734	2597.0061	2587.5815	2580.1296	2577.3372	2579.1658	2583.5491	2593.6711	2593.0034	2590.5281	2579.6296	2569.7961	2559.8420	2554.7388	2550.3225	2549.7368	2546.7073	2545.3591	2543.7859	2538.9028	2525.0356	2512.7820	2499.3975	2484.6563	2477.2485	2470.7373	2472.7458	2477.0349	2468.6455	2455.0737	2439.8528	2413.3000	2371.0613	2337.6272	2314.6936	2291.0977	2291.3298	2283.8945	2282.1843	2278.9495	2273.5281	2272.7161	2255.0286	2269.9121	2291.3386	2299.3989	2294.0669	2298.6790	2294.9556	2275.1152	2270.5388	2260.2014	2256.9695	2244.0938	2267.3320	2287.1233	2305.5337	2323.8833	2341.5212	2343.5823	2337.6702	2327.3352	2316.9556	2306.7917	2292.5320	2282.6545
2534.8784	2533.1184	2531.6409	2530.9441	2522.2505	2513.2351	2518.5554	2536.7227	2545.5364	2548.8450	2550.1914	2547.9421	2542.8801	2535.6816	2512.2249	2489.4358	2478.4255	2474.6755	2476.9761	2475.6296	2488.2317	2487.0830	2477.1731	2477.0859	2483.7378	2489.9607	2503.4001	2518.9871	2541.0293	2549.9360	2569.3984	2568.5515	2564.7500	2566.0212	2572.4495	2577.7788	2581.5203	2584.8979	2586.4390	2587.1987	2589.2566	2591.1792	2593.8374	2593.7390	2592.6885	2593.0603	2590.0815	2588.1499	2591.8730	2586.5642	2578.2502	2569.9751	2563.4817	2570.4668	2570.9688	2568.2205	2568.3235	2567.5691	2569.6262	2572.8579	2576.2139	2577.4685	2580.3691	2576.5532	2568.6082	2549.0732	2526.1040	2513.6526	2509.6450	2509.1765	2510.6863	2510.4382	2498.7041	2482.2507	2459.2754	2458.0601	2483.4846	2483.2322	2460.3003	2441.3486	2456.4961	2481.9324	2494.4507	2510.8264	2529.1858	2531.7961	2521.0747	2515.1538	2508.7998	2510.2556	2508.4558	2509.3232	2502.1721	2493.8430	2504.8872	2509.5481	2514.9214	2518.1326	2521.3918	2524.5903	2532.5039	2531.3447	2534.0784	2534.6052	2540.0696	2546.9514	2555.1587	2562.2573	2572.9211	2583.0547	2591.2361	2602.8828	2610.5139	2617.3301	2625.9150	2637.0742	2648.7710	2654.9421	2651.1458	2643.8474	2643.0671	2639.0620	2638.7527	2634.2632	2633.7656	2632.0161	2626.1440	2620.5679	2617.5718	2615.8513	2614.8826	2612.8752	2608.1287	2604.4478	2602.4116	2599.8123	2594.2849	2591.2412	2588.7734	2586.1831	2586.3792	2587.2207	2590.4426	2588.0017	2582.9329	2575.7979	2569.7842	2562.4421	2557.9824	2554.9768	2553.1301	2552.5750	2550.3474	2539.8999	2521.2966	2509.0188	2496.6663	2484.4739	2487.1875	2475.5520	2464.5886	2468.8032	2476.3123	2446.6064	2419.3352	2389.2148	2357.2239	2330.1460	2320.4280	2322.3208	2315.8101	2292.7598	2299.3196	2304.4185	2297.6267	2282.2344	2268.4216	2280.9658	2309.8396	2321.4968	2313.7280	2310.5066	2301.3391	2289.9746	2283.9304	2274.4434	2273.9534	2250.9417	2259.8936	2273.5601	2289.4072	2307.3245	2326.8398	2341.6719	2344.1111	2335.0435	2325.0105	2315.7791	2305.3225	2291.9185
2527.2874	2521.8562	2518.4922	2516.0029	2514.4978	2517.9468	2527.4360	2541.5488	2544.7200	2543.5811	2542.5308	2536.7981	2528.8252	2512.5996	2494.2090	2480.1797	2477.0957	2477.6755	2475.2471	2485.0210	2502.2224	2499.0085	2481.1768	2478.6675	2480.0791	2479.8450	2497.2688	2509.7256	2534.2510	2544.0693	2558.8230	2561.5144	2559.7131	2557.2600	2563.4775	2574.6155	2574.5859	2579.2327	2583.8311	2583.0842	2587.8401	2591.5774	2591.3342	2592.3137	2593.0583	2594.4424	2592.1709	2589.9463	2591.5801	2589.7134	2583.9800	2577.6533	2567.5461	2575.9360	2573.8518	2572.6843	2574.4150	2573.2229	2576.2690	2584.6045	2588.4014	2597.5347	2602.9895	2591.3870	2572.2148	2556.3271	2536.8140	2518.9253	2507.1841	2499.3582	2498.8875	2490.7712	2482.9653	2464.4836	2458.6331	2483.1375	2498.0059	2493.5605	2476.5073	2459.9553	2442.5557	2462.6997	2479.9089	2500.4211	2535.7668	2550.4026	2534.5828	2523.1826	2516.5220	2515.1304	2513.3218	2511.3765	2505.1287	2514.2883	2516.8992	2521.7190	2524.9250	2540.2429	2548.0557	2552.7593	2555.5691	2552.0481	2550.8752	2548.9170	2549.2512	2550.5168	2550.2415	2558.1963	2576.6318	2585.6006	2593.1138	2600.3923	2611.5759	2620.3713	2625.3823	2629.5535	2635.1365	2641.8442	2645.0745	2640.6965	2642.3408	2643.4705	2639.5657	2636.8103	2637.5767	2638.2754	2636.0049	2631.5564	2627.3689	2622.9087	2618.4934	2618.4438	2614.7446	2611.2515	2609.7131	2609.1089	2605.1958	2602.4829	2599.1177	2595.3508	2593.4453	2590.9402	2589.0840	2584.0320	2580.6870	2575.4429	2570.1750	2563.8916	2557.5364	2553.4414	2546.7209	2540.5898	2539.5154	2526.5544	2511.8311	2496.2793	2490.8154	2495.3625	2495.5342	2485.3013	2473.8557	2459.9456	2453.8865	2427.8521	2399.4932	2370.6008	2353.3799	2351.4670	2352.4016	2347.4714	2327.5601	2319.8555	2318.5745	2324.7063	2307.1321	2288.8616	2277.3423	2290.2808	2319.7024	2337.9841	2336.3787	2325.9128	2310.7717	2310.8984	2291.0042	2294.5056	2278.2959	2277.1833	2280.8047	2273.4565	2275.0071	2292.4827	2313.8909	2337.1914	2350.1729	2343.3474	2333.9478	2324.6096	2316.0491	2298.9006
2519.7261	2519.1025	2519.0103	2522.2578	2528.1030	2531.0178	2540.9263	2543.9536	2540.0256	2538.1162	2534.1472	2520.3816	2510.6570	2493.6396	2478.5942	2477.8428	2477.0759	2477.2151	2483.3354	2491.6458	2508.5840	2504.4478	2494.3210	2483.6025	2481.3696	2481.0383	2482.2659	2495.7112	2516.6890	2528.7864	2543.8289	2541.4961	2542.5913	2544.4768	2549.2327	2557.9946	2562.7327	2567.1150	2573.2039	2577.3765	2581.8442	2583.8464	2586.7471	2590.9480	2593.1548	2594.2739	2593.9966	2592.7212	2594.7158	2592.3972	2587.4924	2583.9446	2575.3074	2576.7654	2578.6387	2577.6233	2580.5459	2581.1699	2582.1704	2588.5918	2596.6792	2604.7961	2605.7502	2588.8342	2574.2595	2561.6289	2545.9983	2531.5940	2509.1204	2497.6055	2487.4937	2473.8743	2464.9990	2459.9141	2477.7400	2500.0254	2514.9321	2511.4236	2496.3625	2477.0125	2462.5471	2447.0110	2466.3848	2487.6218	2521.0754	2565.2581	2549.1870	2533.4619	2523.5066	2520.7944	2518.4053	2514.7068	2510.8762	2509.1086	2519.1357	2529.4053	2534.4553	2542.0559	2556.3030	2569.6016	2577.0642	2575.5547	2573.1357	2571.4775	2567.0876	2566.2234	2567.4380	2564.5527	2566.3440	2572.5833	2580.1772	2589.9036	2607.0613	2620.3464	2625.4663	2626.5134	2623.7329	2628.3533	2631.8030	2634.2212	2642.1970	2641.5930	2640.3113	2641.4043	2644.9617	2646.4922	2645.7603	2643.1794	2637.7361	2632.4412	2626.9983	2625.8142	2622.1536	2615.5625	2623.2563	2624.2695	2621.4570	2617.6150	2614.2405	2607.2769	2599.9822	2594.4126	2591.6897	2587.3596	2580.5811	2575.6033	2570.4692	2567.1672	2560.5498	2555.0215	2547.7537	2537.2739	2530.5657	2528.4353	2520.7361	2510.6055	2508.5112	2508.2856	2503.3152	2494.0681	2484.6213	2471.8833	2442.9297	2415.7339	2403.6414	2401.1387	2392.0442	2387.3467	2378.9861	2354.0603	2327.8372	2325.0740	2337.1992	2334.0872	2316.3862	2314.4397	2292.8352	2298.5940	2327.2832	2356.2476	2351.5566	2341.9370	2330.0576	2322.0354	2310.2024	2306.5684	2300.1248	2294.8054	2306.0017	2296.4836	2281.3677	2282.3176	2304.9209	2328.8582	2350.4507	2350.5198	2342.7957	2332.6589	2322.5154	2308.5818
2533.6614	2531.6990	2532.0769	2539.0701	2542.6655	2542.8274	2539.7158	2536.2307	2533.6128	2527.1650	2521.4055	2505.6621	2486.5234	2480.0408	2479.1106	2477.9307	2478.1235	2478.0918	2486.7292	2498.2126	2509.0535	2518.3516	2513.3198	2496.1106	2488.5295	2483.9438	2482.8823	2484.0361	2497.8630	2511.6223	2524.4690	2527.8821	2534.9656	2540.3975	2546.9070	2556.9548	2567.8147	2573.5417	2578.1382	2583.2285	2585.9858	2584.6335	2588.0256	2591.2661	2593.3289	2594.5764	2594.4727	2593.9971	2596.0225	2598.4675	2593.2456	2588.7625	2584.2373	2583.5276	2585.2795	2584.6970	2586.6931	2590.5720	2593.2473	2601.4219	2605.1189	2605.9563	2600.0220	2588.7405	2579.0413	2567.5476	2551.6167	2529.6086	2519.9556	2511.8037	2497.4304	2478.2581	2464.5676	2479.8262	2498.1331	2516.5437	2525.4607	2521.9275	2511.4753	2497.1174	2485.1677	2459.1880	2458.2576	2481.9353	2508.1077	2541.0107	2559.6865	2544.7935	2531.2944	2526.8320	2524.0347	2520.8445	2516.8865	2511.6440	2519.2437	2530.3020	2542.9917	2547.3857	2555.8474	2574.4890	2588.2339	2599.1299	2596.7717	2595.2590	2591.6313	2586.5957	2585.1174	2581.1121	2576.9956	2578.9417	2581.4907	2583.5122	2587.8022	2603.0542	2609.6479	2614.4580	2621.4536	2624.9600	2624.7190	2628.9595	2633.6575	2639.5991	2643.1797	2646.5278	2648.5908	2652.4204	2656.3525	2652.2578	2644.5801	2639.3633	2634.6016	2630.6064	2625.4185	2623.4739	2640.3242	2640.1365	2635.2432	2630.3682	2626.5571	2618.4924	2608.5449	2599.0938	2593.0098	2590.7405	2586.9478	2581.6125	2576.6414	2570.1521	2565.1497	2559.8801	2552.9358	2543.6433	2543.6108	2539.6052	2533.7319	2528.8247	2526.0430	2518.9014	2513.8718	2509.5032	2498.2483	2480.3076	2465.0674	2443.9094	2439.7659	2437.7300	2429.0168	2404.2119	2377.4880	2361.5620	2357.3516	2348.1553	2354.0986	2351.6899	2332.2932	2338.5708	2316.1968	2313.6736	2331.5769	2371.3186	2369.3076	2362.8472	2350.4609	2341.2622	2327.8276	2325.7480	2310.0132	2322.8176	2333.0417	2318.0037	2297.5298	2281.6497	2297.0005	2318.5779	2337.2952	2351.1055	2350.3660	2339.8352	2329.8687	2318.7720
2549.9404	2546.9507	2546.4187	2546.7095	2549.4749	2545.0999	2539.2883	2531.8806	2521.7190	2517.7969	2505.0078	2485.7241	2480.7957	2481.9219	2479.3000	2480.1462	2477.9326	2484.9204	2494.5352	2508.5049	2519.2917	2529.6375	2524.5461	2512.5403	2500.9712	2494.1768	2486.8032	2485.2373	2487.7549	2500.7271	2513.5103	2541.2473	2549.2756	2549.2302	2554.0474	2561.8755	2577.8425	2585.6355	2592.4678	2591.0522	2590.6506	2589.5693	2589.6194	2592.6877	2595.0042	2595.2312	2595.8442	2596.2507	2599.5198	2607.2236	2603.0178	2596.0007	2589.8582	2588.8909	2588.4063	2589.6450	2590.7261	2596.2705	2614.1011	2623.6636	2618.7065	2609.9978	2598.7632	2591.5056	2582.1777	2570.8481	2554.1067	2542.5120	2525.9324	2514.3220	2498.5161	2474.4434	2478.7791	2504.7087	2517.7507	2525.7097	2527.4312	2525.1235	2521.5662	2517.0005	2498.0725	2473.1948	2452.6978	2466.3938	2494.1245	2537.4456	2560.3757	2552.7146	2537.4385	2531.9941	2530.3313	2527.7498	2523.5540	2518.9629	2519.1995	2528.0054	2548.9668	2554.0208	2559.7466	2572.9355	2589.1682	2600.2402	2608.5405	2605.1162	2606.6501	2608.1978	2606.8596	2602.7893	2597.3889	2600.4116	2605.3247	2605.9395	2607.5420	2609.8215	2617.3379	2623.9104	2628.9734	2633.1965	2631.0168	2629.6992	2630.7935	2633.8813	2642.2446	2653.5127	2656.5564	2655.8196	2657.3782	2655.6792	2649.2739	2644.5137	2638.3562	2631.6409	2628.1277	2624.3293	2634.9407	2636.4863	2632.3755	2627.7651	2625.2712	2618.3254	2609.9614	2600.9153	2592.4253	2587.8687	2584.9358	2580.6414	2577.0330	2570.8650	2564.8586	2558.1648	2548.5535	2550.7390	2552.4351	2549.1890	2545.7830	2542.6577	2537.6069	2531.7292	2532.0505	2522.3926	2502.3047	2494.2739	2484.8279	2472.6416	2471.1011	2465.7805	2444.4680	2416.9915	2396.8750	2390.4333	2383.7981	2365.5508	2378.5708	2377.0847	2361.6755	2362.2361	2344.8735	2316.9929	2336.4519	2365.2478	2384.9282	2384.0449	2374.4968	2356.6926	2350.0488	2343.9983	2339.4946	2343.4641	2361.7554	2336.6970	2311.5562	2300.2683	2298.1047	2306.6570	2321.2402	2335.2263	2344.5972	2341.5095	2333.5725	2322.9434
2554.5708	2553.1970	2552.9475	2552.8098	2551.9602	2549.9175	2545.9526	2539.9971	2525.8772	2505.6174	2495.5952	2481.7266	2483.7590	2480.2922	2479.8933	2478.6721	2483.5527	2491.6248	2502.1038	2515.6064	2529.1931	2542.9053	2536.5063	2529.8171	2518.8818	2511.2925	2498.5081	2489.3806	2487.3801	2492.4866	2517.0757	2544.8381	2550.7119	2553.2346	2565.3645	2568.4094	2574.7583	2585.8699	2593.2610	2595.2998	2594.1531	2592.9788	2592.7437	2593.9534	2595.3030	2596.5984	2598.5425	2600.1304	2606.2859	2618.0901	2617.5815	2600.9783	2593.9768	2590.4998	2591.4397	2591.3025	2593.6660	2596.9685	2609.8308	2618.1663	2621.3174	2624.0894	2600.0908	2586.8906	2575.2400	2568.6338	2550.7283	2534.6384	2514.6165	2496.0825	2482.7285	2473.4788	2486.1448	2508.4849	2526.3772	2534.6658	2533.9346	2530.8945	2526.6990	2521.4409	2506.9690	2485.3123	2467.6389	2461.7292	2475.3228	2522.5508	2539.6912	2550.9553	2550.7373	2541.9246	2539.4646	2538.3091	2536.6162	2531.5708	2525.6653	2521.6057	2538.1335	2550.0212	2562.0684	2572.7461	2584.4363	2592.1042	2596.5852	2599.2290	2607.8149	2614.1951	2617.2173	2617.5325	2619.2759	2621.8333	2623.0273	2626.0046	2629.5234	2632.4988	2633.5593	2635.0959	2638.7527	2639.0957	2638.3154	2637.3325	2635.4434	2633.8772	2637.5623	2648.3950	2655.6299	2661.1541	2655.8777	2652.0308	2646.3352	2642.4246	2640.6501	2638.4651	2634.6580	2632.2952	2630.7688	2631.0488	2628.2373	2625.2175	2621.0149	2614.4141	2608.5176	2603.1194	2598.4153	2592.2676	2586.4434	2580.0862	2574.4702	2568.2915	2562.9329	2558.2983	2563.0349	2562.8066	2567.4182	2564.9111	2560.0359	2556.9146	2551.5789	2544.0349	2538.5276	2533.0024	2522.4573	2514.0513	2505.9167	2502.4756	2494.0901	2486.7134	2461.4783	2441.9060	2429.6577	2424.5520	2413.3743	2397.2358	2402.3086	2401.8428	2394.0596	2391.8091	2368.6353	2341.7266	2341.1196	2367.0981	2391.3879	2403.9429	2392.9563	2380.0669	2373.7146	2363.0815	2361.0962	2360.2834	2353.6704	2339.2361	2315.1987	2301.2991	2292.8877	2312.2256	2324.9390	2324.9580	2334.4988	2342.2554	2337.1433	2328.1982
2556.3516	2555.0908	2556.2075	2558.8782	2560.5347	2554.6304	2548.7141	2540.6924	2526.2141	2505.6990	2489.8296	2482.2969	2480.4226	2480.4441	2480.7600	2484.9951	2489.3215	2495.9666	2508.9600	2523.7705	2537.1860	2547.4783	2553.3677	2544.5562	2538.3176	2524.1106	2510.5203	2493.8301	2493.2856	2490.0002	2509.2180	2531.8843	2545.2188	2560.7161	2573.4211	2577.7786	2579.7217	2583.9053	2587.9937	2591.1667	2593.8213	2594.6492	2596.1284	2596.5034	2596.7424	2598.4172	2601.3352	2605.0208	2612.2964	2628.7673	2638.3604	2612.1428	2599.4231	2594.1919	2592.9385	2591.9778	2592.2104	2594.6829	2599.3579	2604.7542	2608.2935	2612.3047	2591.8770	2580.5537	2570.0020	2555.4089	2544.7732	2538.4717	2529.1194	2509.1577	2486.3474	2501.8320	2502.3567	2512.6641	2533.2764	2538.1179	2536.8933	2533.5901	2529.5396	2523.8914	2507.6140	2500.8276	2489.5313	2463.2678	2470.2437	2489.7974	2509.3757	2535.3538	2559.2393	2554.3215	2553.5115	2555.3860	2553.7351	2550.0872	2541.2861	2530.7375	2528.5833	2545.6147	2554.9714	2568.3721	2583.6941	2584.3911	2589.5098	2599.5750	2608.5474	2614.3977	2624.1030	2626.8274	2630.5901	2632.4844	2636.9097	2642.2830	2644.6074	2645.6780	2649.5396	2648.6733	2649.7747	2651.1855	2649.4673	2652.0789	2650.0439	2645.3845	2637.2361	2646.3711	2655.1970	2658.3406	2656.2463	2653.6567	2651.2568	2647.0410	2646.0767	2644.3689	2640.5012	2642.2480	2638.9053	2635.5388	2633.9006	2633.7585	2630.0911	2623.1514	2619.3376	2613.9507	2605.8308	2597.2925	2589.7114	2582.5608	2575.6841	2570.2690	2566.6345	2567.8508	2571.3328	2569.8745	2575.7141	2580.6145	2576.4626	2573.3042	2572.6731	2563.4270	2558.5059	2552.1023	2544.4587	2532.5166	2521.4871	2511.5750	2500.0793	2494.0796	2488.2024	2467.9504	2461.0098	2455.3655	2438.5132	2429.5525	2428.5686	2425.1973	2421.4541	2400.1106	2370.5942	2351.2986	2352.2771	2369.7043	2399.5500	2409.9568	2407.7429	2398.9648	2392.8142	2383.3008	2375.2834	2370.2302	2361.9490	2347.5750	2329.8381	2315.6973	2295.9812	2312.3894	2332.0591	2338.6113	2343.2200	2346.8767	2343.9890	2329.8613
2552.6565	2552.7937	2554.5728	2557.8403	2562.4536	2560.9075	2550.0369	2538.7520	2524.6375	2500.4143	2484.3584	2483.4082	2481.6091	2482.4717	2482.4614	2488.2720	2493.1516	2500.2595	2512.6426	2525.4170	2540.4724	2556.7161	2559.4226	2551.9634	2536.9438	2519.7126	2504.7617	2507.5605	2510.3364	2492.9951	2499.9597	2522.6040	2550.8079	2561.7874	2577.5518	2583.0444	2591.2173	2594.7651	2593.6912	2594.3694	2597.2756	2600.5598	2600.4790	2600.7458	2599.1128	2600.9612	2604.2876	2609.3372	2617.1287	2634.9919	2655.3132	2620.1526	2605.6536	2598.5347	2595.4575	2593.2156	2591.9133	2592.7473	2593.6875	2597.2488	2602.1533	2603.4739	2593.8975	2582.3281	2575.8025	2565.5891	2554.5222	2546.6985	2535.3137	2509.3635	2503.7268	2524.4771	2524.9929	2521.1838	2529.5291	2543.1404	2546.1284	2541.7410	2537.0852	2529.3533	2519.1062	2508.7002	2491.0303	2467.9978	2465.6873	2476.5039	2500.7231	2523.6580	2541.1831	2551.8054	2560.1946	2567.0400	2570.1643	2566.2664	2554.5684	2544.7432	2535.6401	2534.0088	2547.9236	2558.9119	2569.8533	2576.4246	2582.1443	2590.9983	2602.2249	2615.0684	2623.0325	2629.2751	2634.5750	2640.7937	2643.3921	2650.6282	2659.8022	2660.9292	2659.7988	2659.0627	2659.6973	2659.5637	2656.7561	2655.6304	2656.2993	2651.2590	2640.3213	2643.7817	2657.6213	2662.2427	2659.8179	2656.7939	2654.7100	2654.8000	2652.7317	2652.1250	2655.7078	2654.6833	2648.3933	2643.6060	2641.9048	2643.9849	2640.1616	2631.5510	2621.4563	2612.6426	2602.3875	2592.5757	2588.2375	2582.8330	2583.9441	2579.4326	2573.8435	2567.6851	2564.7224	2568.3181	2567.8423	2572.7886	2583.0637	2582.9202	2587.1587	2580.8315	2577.3562	2570.0962	2559.4500	2547.1941	2532.7634	2521.0840	2513.5313	2506.5757	2501.5278	2486.9714	2478.5996	2470.1143	2460.7773	2455.9844	2449.7578	2444.9319	2434.3967	2406.0613	2387.0432	2370.9688	2365.8943	2376.1135	2395.0662	2415.2444	2415.3892	2413.2300	2407.5762	2395.9385	2396.9182	2382.1111	2370.7434	2358.1333	2344.3015	2324.5037	2306.6685	2310.3105	2333.4844	2352.6721	2359.0681	2356.6013	2351.1172	2346.9324
2543.7139	2543.5027	2545.2615	2551.8779	2555.8042	2552.9329	2546.5188	2535.4233	2518.3484	2495.6082	2486.1550	2482.7131	2482.5164	2481.0500	2485.0588	2494.6448	2498.4302	2502.7678	2514.3281	2531.1653	2546.3110	2561.4617	2558.1055	2549.0583	2527.5027	2512.3262	2517.3835	2525.2986	2525.8152	2507.5200	2495.0225	2508.4539	2530.9692	2546.8176	2571.0464	2584.6797	2591.8198	2599.3833	2601.8264	2603.6658	2604.6726	2606.8333	2608.2124	2604.7012	2602.8982	2603.7402	2607.0076	2614.0659	2620.1880	2630.5964	2634.5054	2616.7791	2607.9036	2601.9954	2598.5098	2597.7327	2593.8032	2593.1785	2594.1448	2597.1116	2606.6399	2615.8735	2606.7949	2603.1248	2585.8352	2568.1497	2556.8098	2545.3674	2527.4084	2508.1641	2523.7119	2541.2664	2546.1792	2541.9219	2536.6855	2547.2500	2549.8823	2547.7498	2542.5571	2534.9548	2525.0176	2505.3562	2485.5691	2495.1006	2484.1948	2468.7090	2492.1641	2513.0125	2528.6858	2546.6160	2555.5732	2567.1970	2582.7253	2579.4019	2565.7642	2555.7803	2545.8389	2540.7622	2539.7798	2549.2954	2559.8042	2570.4922	2580.9783	2595.6240	2606.9990	2619.8408	2629.2642	2635.6978	2643.4219	2647.6753	2650.7153	2655.6746	2659.7834	2662.2869	2665.5588	2665.1843	2663.1946	2661.6074	2660.7695	2660.7214	2654.3228	2646.1104	2643.8618	2651.8635	2653.0381	2664.4731	2665.3093	2663.2954	2661.7686	2660.8108	2659.9714	2660.8743	2664.3269	2664.5261	2660.6284	2657.0527	2653.5049	2645.8547	2639.2534	2630.7371	2617.7305	2606.0183	2598.6853	2610.4849	2603.2571	2595.9104	2590.7249	2584.6653	2575.5801	2565.8887	2559.3188	2553.1741	2555.4116	2561.7710	2568.7480	2575.4470	2596.4258	2590.1990	2588.6970	2579.5894	2568.0710	2552.0916	2540.5020	2529.4253	2520.8948	2515.8774	2506.2378	2495.5938	2487.1860	2479.4819	2472.5173	2469.0374	2469.0789	2465.2410	2450.8362	2429.8191	2415.6431	2390.5918	2388.2019	2397.7629	2403.0288	2419.3677	2426.1465	2421.9365	2416.0173	2406.4534	2401.7412	2391.6045	2375.6563	2355.4060	2336.6377	2325.7559	2317.4653	2307.0847	2330.5176	2353.1235	2369.0735	2370.4548	2361.1611	2353.5229
2548.9165	2536.2200	2535.7996	2545.4346	2552.4905	2549.8438	2539.7974	2528.3557	2513.0364	2488.2979	2485.0876	2483.0149	2484.0901	2484.6289	2492.3735	2500.4060	2508.3953	2510.8037	2513.4478	2527.9050	2545.9001	2559.8789	2556.5574	2547.5671	2526.9124	2518.6990	2534.3145	2542.4380	2540.9438	2524.8042	2515.6626	2500.5400	2506.0684	2527.6641	2552.8086	2578.2617	2589.6851	2599.2593	2605.6970	2613.3545	2613.6719	2610.8350	2609.0972	2608.5542	2607.8552	2607.7834	2610.3733	2615.2717	2620.1355	2628.4226	2628.6360	2618.7615	2612.3735	2603.6484	2603.1941	2604.6475	2601.3213	2596.9692	2596.6292	2597.4319	2604.2991	2615.8857	2623.6052	2615.9731	2586.5383	2568.2256	2554.9121	2546.5374	2538.5303	2525.2927	2544.1384	2556.9365	2558.7661	2556.6016	2552.3516	2549.1389	2550.7051	2548.7449	2545.1968	2529.9192	2515.7112	2502.1711	2506.9028	2519.1482	2505.5171	2482.2700	2477.3948	2498.5981	2515.3540	2537.9028	2543.7048	2567.6287	2597.5430	2595.5264	2577.3774	2565.8030	2556.9277	2551.6614	2550.4761	2555.6692	2558.0718	2569.6487	2584.0544	2599.3577	2614.3179	2625.9084	2636.7754	2646.3145	2650.2036	2654.0510	2659.8098	2662.1396	2663.2773	2667.0869	2667.2075	2669.8479	2667.9180	2664.5735	2662.5750	2662.0200	2657.9761	2650.7773	2647.3557	2660.2371	2660.5823	2663.9631	2672.3992	2670.9160	2667.9910	2667.2009	2667.8813	2669.3254	2671.5220	2669.9492	2664.2534	2662.0168	2658.5415	2647.3042	2639.1250	2628.8650	2611.0549	2607.3589	2615.6675	2615.9607	2609.8494	2603.8308	2600.2649	2590.2961	2575.4722	2561.5476	2549.9365	2542.4648	2543.7798	2545.1721	2555.9988	2563.5337	2582.0776	2588.1130	2589.5422	2578.7229	2566.4941	2550.9026	2537.3208	2530.9082	2522.3442	2513.1934	2505.8542	2498.0552	2489.5784	2483.4448	2477.6755	2474.2861	2471.0090	2469.8540	2462.4951	2454.2214	2433.6135	2418.5525	2412.1516	2423.8152	2425.9858	2431.5984	2436.3433	2429.9802	2422.1353	2418.1514	2411.9229	2404.7109	2387.4507	2363.7107	2358.7495	2347.5178	2335.7065	2314.9333	2326.0725	2350.6389	2366.8298	2369.8240	2364.0967	2347.5554
2546.8884	2539.1245	2526.2107	2539.5908	2549.2527	2545.8425	2532.1929	2518.7659	2500.0940	2487.2910	2485.7976	2483.5835	2486.8149	2494.7170	2506.8560	2516.5134	2523.0774	2527.6594	2528.1289	2523.9324	2542.5891	2555.1191	2553.9048	2543.1777	2523.2893	2525.7053	2543.2859	2556.7729	2554.2266	2543.3809	2539.0981	2523.6775	2503.5471	2519.5679	2549.0825	2576.3159	2588.8789	2597.4160	2602.1584	2604.2498	2608.5151	2609.4272	2608.6853	2610.0278	2610.5391	2611.7180	2614.3181	2617.6672	2620.6135	2629.7107	2630.2708	2624.7324	2625.4915	2616.2324	2611.9153	2617.2700	2614.2209	2605.0129	2600.8970	2598.9331	2595.3948	2595.3916	2606.1108	2593.6082	2579.7834	2567.2830	2555.9182	2548.0967	2531.6697	2536.4023	2558.0129	2562.8911	2565.6536	2565.0447	2561.9004	2556.4668	2552.8167	2550.7603	2546.3643	2533.8320	2522.8057	2506.6150	2517.7947	2529.3284	2521.7832	2501.3918	2483.5166	2479.0854	2502.8782	2517.1660	2533.3687	2560.4875	2584.2781	2602.5769	2579.0378	2574.8398	2575.0488	2570.7112	2568.1917	2567.0686	2570.0923	2573.2366	2584.4851	2598.3911	2616.9282	2640.0706	2647.6389	2654.1567	2659.4089	2663.3936	2666.4553	2668.2461	2672.0061	2671.3601	2671.2522	2671.6926	2671.4919	2672.5281	2670.3315	2664.5269	2659.3943	2652.7236	2649.3020	2667.4116	2663.3660	2663.5105	2672.4873	2673.7561	2674.9360	2674.2888	2675.1782	2679.6555	2675.5884	2670.9048	2667.4324	2662.3672	2654.9241	2648.2769	2636.1433	2621.3765	2616.6460	2626.0061	2626.5403	2619.1450	2612.3472	2607.3252	2601.6274	2584.3091	2566.5491	2563.0181	2560.8770	2550.3855	2538.2385	2533.7998	2539.2236	2546.5188	2565.9492	2565.7280	2577.7061	2575.0474	2577.3425	2547.3594	2528.1301	2524.7729	2521.9292	2512.2905	2503.2480	2495.8555	2489.6677	2483.5862	2478.2607	2474.8857	2472.4297	2471.0081	2467.1724	2462.8032	2457.5125	2441.5850	2441.9792	2453.1145	2448.5801	2448.1697	2442.8257	2436.4092	2430.7476	2425.1594	2421.3521	2414.4353	2397.6277	2386.1292	2369.2275	2354.8235	2337.6914	2321.6184	2327.7034	2349.8970	2369.0415	2373.5376	2369.6675	2360.7959
2542.9648	2533.7800	2518.1980	2528.9075	2535.3875	2536.3967	2520.3357	2494.9121	2489.0781	2485.3945	2484.0481	2488.8740	2495.1309	2506.9604	2522.8833	2534.1367	2541.8303	2545.8247	2547.0352	2533.2295	2535.4009	2549.3931	2549.5076	2532.5459	2529.6262	2536.3623	2548.8335	2560.8252	2561.3218	2553.7546	2540.2263	2519.5649	2507.2947	2516.4463	2537.7866	2563.7327	2580.9294	2587.2905	2592.7537	2595.2200	2599.0750	2603.5039	2607.2078	2611.5671	2612.3643	2614.1519	2616.7917	2619.7034	2623.1990	2630.7107	2632.7612	2631.2786	2632.4028	2630.7383	2632.7920	2636.2095	2630.8345	2614.9956	2606.7556	2599.1338	2591.5198	2583.7144	2582.3191	2577.1826	2569.6069	2560.8945	2548.4812	2536.2693	2533.3884	2553.0576	2568.6948	2570.9092	2578.7803	2571.3057	2567.5168	2563.9011	2558.5449	2556.0266	2554.3467	2537.8301	2529.4316	2523.6707	2522.1465	2530.0474	2529.1577	2520.7988	2504.7849	2488.3137	2483.4805	2497.8159	2519.6802	2542.8765	2568.6455	2586.8721	2581.0283	2586.0378	2595.9458	2596.8328	2588.6367	2582.8447	2582.3513	2580.2932	2582.9434	2593.6143	2609.6365	2629.5447	2648.0659	2662.0142	2668.8967	2673.5811	2676.1824	2676.8516	2679.0171	2679.4121	2677.5422	2678.4907	2677.8677	2677.6189	2676.0200	2671.1545	2660.4312	2655.1389	2652.2090	2653.5427	2659.0896	2664.5859	2666.2080	2676.4355	2680.5220	2678.5491	2681.2415	2685.2986	2679.1667	2674.1526	2668.1904	2662.1345	2653.4839	2646.6575	2635.0242	2621.5454	2634.4966	2644.1499	2632.0701	2621.8435	2612.2842	2599.7922	2586.7610	2571.1785	2581.3472	2587.3660	2577.8879	2562.6782	2547.5112	2535.5056	2525.2397	2532.9338	2544.0432	2547.9775	2543.4636	2542.7439	2540.0129	2529.5796	2519.2312	2516.1213	2515.8118	2507.4995	2499.9529	2494.5564	2487.6633	2481.4028	2477.2375	2472.0298	2468.3464	2466.6355	2465.0828	2462.8857	2461.1045	2458.1807	2458.6938	2464.2217	2466.5220	2457.3359	2449.0867	2442.4407	2436.8167	2431.2026	2427.7109	2424.5439	2413.4502	2400.5747	2378.4910	2352.7380	2345.2390	2340.4033	2326.9880	2350.0613	2372.6060	2383.1204	2379.5525	2370.4209
2536.7542	2527.6592	2515.6626	2513.2112	2513.2747	2518.3062	2507.5115	2491.5308	2486.1125	2485.2737	2489.2427	2499.6821	2508.1584	2516.0964	2529.3550	2548.0173	2556.8928	2560.0686	2560.8530	2549.3022	2541.2241	2540.9229	2544.4548	2531.3975	2538.0203	2549.1250	2561.1064	2563.9966	2564.5488	2559.2410	2542.7944	2525.0422	2507.8196	2513.9136	2537.6443	2559.1113	2568.2668	2578.2493	2595.7036	2599.7158	2608.4248	2610.6006	2614.5886	2618.5789	2620.0286	2621.3728	2622.2629	2625.2190	2630.1094	2636.0015	2637.3086	2639.8843	2644.8831	2644.2280	2645.2729	2649.5295	2637.7957	2619.4045	2607.7749	2593.2256	2587.2112	2580.4895	2569.7830	2562.9949	2555.5083	2546.4319	2537.7805	2538.9937	2553.3186	2565.9189	2574.1042	2577.9612	2579.6294	2577.8286	2576.2771	2573.5298	2570.5952	2567.7302	2558.1606	2553.6533	2549.4255	2535.7473	2528.4917	2533.7415	2537.0393	2534.2542	2527.9529	2507.0388	2488.9758	2489.3904	2507.3948	2538.9170	2561.0051	2571.3120	2579.6311	2593.1077	2611.2034	2616.3301	2610.1855	2599.9507	2594.1057	2590.9443	2587.1450	2595.3022	2607.7500	2634.1240	2642.8186	2664.5122	2672.4148	2682.3220	2685.4697	2684.2708	2685.3428	2684.9260	2683.9006	2683.8142	2682.3625	2683.2749	2682.9836	2676.8188	2670.6902	2664.0591	2659.9751	2656.5928	2657.4165	2660.3218	2665.1487	2668.7896	2676.8870	2678.4570	2678.9932	2679.4463	2677.0090	2673.2681	2668.0686	2659.1316	2651.4204	2642.6514	2639.0188	2627.0042	2635.4436	2636.9792	2629.3845	2621.1836	2611.7329	2601.4849	2586.7168	2588.4355	2599.4080	2598.0474	2585.2134	2569.7932	2554.2542	2540.0659	2527.1936	2520.4521	2529.3757	2533.4702	2526.4980	2520.9421	2519.1472	2514.8455	2508.9094	2504.8716	2504.0745	2500.2212	2495.4709	2490.3523	2485.2009	2481.5938	2476.4434	2470.9639	2465.1384	2461.1909	2461.1467	2459.9490	2458.5955	2456.8384	2456.5813	2458.8428	2461.9644	2457.8005	2450.5955	2444.9102	2440.8079	2435.0457	2431.9819	2426.6453	2419.5784	2412.8608	2389.7712	2373.1245	2359.1230	2343.6592	2334.9900	2349.1987	2369.4622	2381.9741	2379.5222	2368.5022
2524.0164	2515.6438	2510.2979	2500.0818	2491.8481	2491.3721	2492.6208	2490.0291	2486.3914	2492.0349	2503.9595	2519.8372	2527.1743	2536.0872	2545.7986	2555.0391	2563.9551	2570.3420	2570.2207	2564.0154	2556.2810	2549.5884	2547.5227	2535.0532	2545.8069	2560.9871	2572.3691	2572.1165	2570.1267	2564.2703	2547.0447	2531.0710	2517.2996	2509.1990	2527.7983	2542.2666	2558.0872	2576.1475	2594.2693	2604.8357	2612.7485	2617.5625	2623.7405	2632.3289	2631.7180	2639.5532	2634.7063	2635.0630	2640.6792	2647.0957	2643.7124	2648.6672	2652.0129	2655.3035	2642.9219	2638.3247	2625.8215	2611.4641	2600.5793	2590.3892	2581.3147	2575.7407	2568.7153	2555.2490	2552.2854	2544.4514	2542.5754	2559.7275	2567.3208	2575.0667	2580.7708	2592.4614	2591.5315	2596.0027	2595.7446	2593.2964	2588.8342	2579.5835	2570.5405	2564.0037	2559.1521	2543.2188	2544.2244	2546.4946	2546.4219	2540.5388	2529.7900	2519.1277	2502.6011	2489.6404	2496.1763	2525.0393	2538.5056	2547.7222	2564.4470	2584.6733	2604.2019	2615.3198	2619.6599	2612.7007	2607.8015	2600.8608	2589.7930	2595.7930	2605.2695	2617.9226	2633.4426	2653.6086	2666.5632	2676.8472	2684.7637	2687.9846	2689.6365	2690.3601	2690.2869	2689.8667	2689.3870	2689.5278	2688.6692	2683.6221	2682.4602	2676.9951	2671.9727	2665.5906	2663.2642	2664.3401	2669.6021	2670.7471	2676.3503	2680.9690	2684.8948	2680.3491	2676.8430	2671.4019	2666.2124	2661.8394	2654.5586	2647.2258	2636.4727	2642.9590	2645.0723	2640.9492	2631.3760	2622.3181	2614.4290	2601.4978	2592.5088	2603.2632	2602.8130	2591.8308	2583.5049	2566.7913	2550.4541	2537.7961	2527.5142	2517.8735	2512.6829	2513.8850	2512.0244	2507.9021	2504.6189	2501.2573	2499.5759	2494.0540	2492.7744	2489.3018	2486.7136	2483.2786	2478.3730	2472.9243	2473.1853	2469.1667	2463.6536	2458.3706	2456.2766	2454.2405	2455.9922	2454.1675	2453.1133	2453.1223	2453.9788	2454.4126	2448.4272	2444.2261	2441.1602	2437.1792	2433.6472	2429.5840	2423.0457	2414.2319	2403.9822	2382.8254	2367.0283	2359.4128	2341.7393	2343.5100	2360.1375	2375.5547	2381.9412	2379.0117
2509.4695	2503.0103	2497.3494	2492.0610	2490.1382	2489.4700	2491.7544	2488.0020	2496.3257	2509.4426	2525.1694	2540.7605	2548.2510	2557.1760	2562.5032	2564.9717	2569.8386	2572.0830	2572.1094	2567.9155	2560.5249	2554.0369	2555.1191	2539.6711	2549.3572	2568.7317	2581.7756	2578.4653	2574.6411	2569.7046	2559.9124	2548.7039	2539.1643	2518.2515	2515.8369	2537.7559	2554.9907	2574.0505	2592.1667	2610.7610	2622.1841	2627.2131	2636.9438	2637.9106	2640.6057	2643.1016	2643.3350	2646.1694	2651.3987	2654.3655	2650.2405	2647.9590	2646.7930	2634.7156	2627.9771	2621.5266	2614.4988	2605.2515	2595.5720	2585.3960	2577.3708	2568.7490	2563.8521	2558.0793	2567.5713	2546.2139	2546.4741	2560.6804	2569.7883	2579.6997	2586.7612	2596.3638	2607.1040	2611.4744	2614.3408	2617.3413	2605.1877	2593.3228	2583.5298	2575.5171	2568.5613	2563.1934	2560.9241	2558.6211	2557.6248	2549.8596	2544.0293	2531.7451	2519.2219	2507.1787	2493.6289	2502.2607	2517.9075	2536.5122	2558.4958	2582.5339	2598.0964	2606.6619	2613.1794	2609.9265	2616.3630	2605.1296	2598.6809	2596.7695	2603.7363	2614.1868	2630.3306	2645.0078	2662.9387	2669.5659	2672.8279	2682.8806	2690.8306	2696.6653	2694.5396	2692.6624	2693.3506	2692.8379	2691.5334	2689.7642	2686.1702	2683.8115	2681.8623	2677.0789	2673.3127	2671.3215	2673.2815	2675.9333	2678.2551	2678.6963	2683.7175	2683.4170	2679.8872	2677.0637	2671.2400	2662.9700	2655.9309	2645.6128	2653.6699	2656.0879	2651.1267	2645.4529	2632.0649	2621.7920	2612.0010	2599.0032	2605.8804	2608.7109	2600.7493	2589.4307	2577.7424	2564.0103	2549.2280	2536.2471	2526.1599	2518.0608	2512.7249	2506.9568	2502.4766	2497.4509	2493.1428	2489.7600	2487.6536	2484.8813	2484.0642	2481.5942	2478.0217	2476.6370	2469.9968	2465.7153	2462.0823	2461.6592	2459.1665	2457.4614	2450.9294	2448.9407	2451.7417	2452.6001	2451.0242	2450.1116	2449.6604	2447.7629	2444.5151	2441.1570	2439.7859	2438.2756	2434.9438	2432.9963	2428.7512	2420.1953	2410.4370	2400.0205	2380.5566	2364.3538	2360.5813	2360.5645	2357.8154	2378.5208	2386.4043	2382.6101
2500.2375	2496.2651	2493.5083	2489.4700	2489.4700	2489.4700	2490.4336	2497.2666	2512.0857	2529.8984	2549.1362	2560.7368	2564.6899	2570.7278	2575.0381	2574.2004	2575.8042	2574.8582	2572.8071	2566.2734	2561.2952	2564.4014	2564.4128	2548.3474	2552.0500	2572.2573	2588.1914	2585.8428	2580.6482	2573.4736	2560.3516	2547.1499	2533.5593	2513.8137	2524.4282	2532.4583	2556.5986	2571.4734	2587.7710	2609.0225	2621.2280	2626.3467	2636.2773	2635.1243	2636.3923	2639.0330	2642.2708	2652.5044	2657.4351	2661.2310	2653.8057	2646.1475	2637.6348	2629.2441	2622.2847	2614.6511	2606.8608	2603.1184	2596.7375	2590.7053	2585.2834	2581.1453	2574.4258	2565.6809	2571.0139	2553.6636	2551.2566	2562.9805	2574.7854	2583.1155	2592.3000	2607.4885	2636.7490	2617.5354	2633.1934	2650.9146	2624.4878	2611.9717	2598.8123	2589.2339	2584.6106	2580.7693	2577.2686	2574.2122	2568.9893	2566.9810	2556.5073	2541.0813	2528.5278	2515.6968	2501.0068	2498.3447	2512.4006	2533.7986	2540.3147	2556.1538	2573.3501	2576.6455	2590.6135	2602.8323	2634.4448	2614.1750	2604.3665	2599.6992	2602.6084	2609.9502	2622.8992	2635.0784	2646.6008	2654.2485	2664.0039	2677.0618	2689.9812	2695.2839	2695.0593	2695.3110	2695.6799	2696.9351	2696.0398	2696.3760	2694.6697	2691.6472	2688.5291	2685.9536	2684.7754	2677.8147	2678.5059	2679.8066	2685.7712	2681.0039	2681.4111	2685.0449	2681.3154	2676.5547	2674.1699	2663.8086	2656.1995	2657.5400	2661.6431	2658.2676	2649.8291	2639.0449	2627.6965	2618.5610	2612.8572	2615.1030	2616.2993	2612.7813	2600.4958	2586.7759	2574.1533	2563.1160	2547.1328	2535.1304	2528.6418	2522.9951	2518.8679	2513.8113	2507.7371	2504.5063	2499.8911	2494.3401	2488.4854	2483.5381	2474.8853	2470.4602	2467.4922	2465.4426	2460.7708	2455.9324	2453.3594	2451.4561	2448.5203	2452.4617	2449.1917	2441.2502	2447.4136	2450.3706	2448.7097	2446.5417	2446.5134	2445.1904	2443.1165	2440.8198	2435.9719	2436.4434	2436.0903	2437.3235	2436.6528	2430.5613	2420.6724	2410.5735	2387.4890	2382.4114	2380.2085	2377.1890	2362.1887	2383.7119	2393.6704	2376.2581
2498.4617	2494.4487	2492.9966	2489.4700	2489.4700	2489.6365	2494.4153	2507.1042	2521.2402	2536.4075	2554.5295	2571.2930	2575.9185	2579.4863	2583.5476	2584.2908	2584.5232	2580.4851	2577.3491	2574.0190	2571.9915	2573.7908	2571.3896	2556.1941	2554.8210	2572.1711	2589.0908	2595.4968	2587.6841	2574.3669	2551.2319	2535.7551	2518.4739	2520.4148	2547.6213	2544.0562	2548.1628	2570.0522	2582.2917	2598.8987	2608.8821	2610.7380	2611.8762	2620.5203	2628.2175	2630.4209	2641.7854	2643.4153	2658.1919	2666.9521	2654.6548	2648.4490	2640.6362	2632.0422	2624.7712	2619.2898	2614.9966	2607.9456	2605.3071	2599.3757	2592.8818	2584.5835	2573.2163	2574.9417	2580.0698	2561.4597	2553.5107	2561.8779	2575.1174	2584.8284	2598.9556	2610.5767	2617.0532	2622.5774	2634.4802	2643.4260	2636.6169	2627.3499	2614.1770	2607.4141	2604.2170	2600.6306	2604.6008	2595.7207	2584.7385	2581.8860	2572.4543	2552.2507	2533.2529	2518.8335	2510.0391	2504.6602	2499.9944	2513.8005	2522.1445	2529.5657	2541.4963	2552.9839	2569.2896	2592.5186	2619.2881	2625.6726	2612.6416	2603.3174	2604.6765	2608.7715	2616.2505	2622.2891	2634.9678	2647.3264	2661.1394	2676.3740	2689.3599	2696.7859	2701.5103	2698.8108	2698.5852	2699.6375	2699.2424	2699.2144	2699.4868	2700.0220	2698.1404	2696.8320	2688.2979	2686.7598	2684.0369	2686.7554	2689.3467	2688.7224	2686.3342	2688.1201	2684.6221	2680.4724	2671.0964	2666.0686	2666.5776	2665.6375	2662.3914	2654.9822	2646.8970	2640.8977	2636.8513	2631.1873	2627.2158	2624.2781	2619.5039	2612.9382	2603.9163	2596.3459	2587.6563	2573.3347	2558.8958	2548.9111	2540.7915	2533.8394	2527.0637	2519.9995	2513.9797	2510.3672	2506.9941	2503.9480	2500.7400	2489.8052	2482.1572	2476.1211	2471.0093	2466.2258	2462.7678	2459.3179	2453.9221	2445.6375	2439.1057	2437.6233	2440.7244	2436.5459	2440.3235	2444.4612	2443.8416	2440.6560	2441.8730	2440.3970	2437.1721	2439.2458	2434.2698	2430.6042	2436.7495	2442.1294	2441.9695	2439.7344	2432.4763	2420.2048	2407.6663	2409.4231	2402.2778	2385.0217	2369.0117	2387.6438	2396.3457	2375.9048
2495.6223	2494.3862	2493.0486	2492.2200	2491.8093	2496.7146	2503.5793	2520.7312	2534.0657	2544.2471	2553.9600	2567.0557	2575.0833	2581.9556	2588.8447	2592.6633	2591.2017	2586.2017	2583.2170	2581.3384	2579.9966	2580.8196	2572.6499	2557.5608	2560.4241	2577.3650	2593.8857	2602.3442	2594.4556	2577.7144	2553.1648	2529.5308	2517.6892	2527.9175	2549.7725	2555.6650	2555.6067	2556.0125	2569.2197	2579.6218	2585.4712	2594.0020	2603.8828	2612.6455	2617.2266	2622.2583	2627.9885	2636.1008	2645.3721	2653.0361	2653.9082	2653.0605	2645.1448	2637.9773	2632.8425	2629.7119	2624.2163	2615.3633	2612.5283	2606.1990	2591.0212	2583.8123	2587.6594	2590.0806	2588.5393	2570.9407	2554.4495	2564.3494	2583.1829	2598.4934	2607.5117	2619.2849	2621.7075	2629.9058	2639.1809	2651.2861	2653.2715	2648.6558	2637.0352	2628.1243	2622.3208	2619.2905	2621.7947	2610.6294	2600.0178	2593.2390	2590.5852	2567.3135	2554.5146	2528.3889	2519.2737	2513.3030	2509.7896	2506.1257	2508.3804	2511.1162	2520.3247	2532.6716	2557.6814	2577.6697	2629.4563	2626.9490	2624.7937	2615.1904	2609.1777	2612.8198	2624.8813	2628.3918	2636.7466	2646.5493	2663.0483	2675.3682	2691.0549	2692.9165	2699.5017	2704.0129	2706.5735	2704.2268	2702.3989	2703.7131	2705.2129	2703.8447	2704.2783	2701.3533	2698.7043	2698.6956	2696.8101	2691.1191	2690.7666	2689.8855	2688.0291	2685.7605	2682.0613	2675.9172	2672.1909	2672.4836	2669.6687	2667.9834	2666.1958	2662.9312	2656.2244	2654.1206	2649.6304	2645.9951	2639.9116	2633.6404	2629.3062	2622.7996	2616.3186	2609.6697	2600.5874	2590.4490	2578.2678	2567.6782	2557.4385	2546.2119	2536.7275	2525.5891	2523.6794	2518.7415	2512.3777	2508.5725	2500.5144	2493.2681	2486.9915	2481.5254	2476.1360	2470.6980	2466.4102	2461.8418	2458.1777	2453.6602	2448.4731	2441.3049	2429.9482	2432.6106	2428.5247	2432.0210	2432.1113	2430.5315	2435.9045	2432.0762	2430.9324	2436.6804	2423.1721	2426.3142	2436.4163	2443.6565	2446.9473	2448.9275	2444.4866	2434.5618	2429.9248	2432.4236	2419.6929	2399.3464	2382.2209	2396.5464	2400.6738	2378.4016
2495.5674	2493.1809	2492.6428	2491.8579	2500.9890	2499.8047	2508.5498	2529.2239	2544.2256	2553.1997	2561.2346	2566.2910	2573.9622	2582.7859	2591.8394	2595.7400	2594.4033	2591.0540	2588.2712	2586.5071	2585.3525	2583.1650	2569.8604	2562.7522	2569.8635	2582.9751	2596.1377	2605.7158	2600.0193	2581.6941	2556.0559	2533.3806	2519.0762	2525.4648	2546.0688	2563.5762	2572.5471	2572.5073	2575.8984	2582.3257	2584.4597	2589.3755	2599.0869	2604.9883	2610.9302	2616.5410	2625.5906	2633.8293	2645.8728	2652.4700	2656.8850	2657.2146	2651.7439	2648.4309	2640.6682	2636.5637	2628.8748	2622.5188	2612.2788	2602.0337	2596.9917	2595.7058	2595.8245	2597.5586	2595.6582	2579.6370	2571.7322	2566.9282	2590.3364	2601.6226	2614.1995	2627.4402	2628.9666	2635.0085	2644.5818	2653.7798	2661.8899	2661.4597	2657.3281	2646.3877	2639.7764	2637.1404	2628.7927	2622.2014	2614.1235	2604.7637	2595.1050	2589.1511	2570.1011	2543.0833	2534.3718	2525.7388	2517.1638	2530.0417	2520.7759	2516.5002	2512.9990	2519.7813	2538.6016	2566.2649	2588.2959	2608.6001	2651.9036	2632.8672	2619.8984	2620.4329	2632.4087	2646.8789	2656.6445	2669.0576	2666.6902	2671.2717	2683.3457	2693.9377	2697.9253	2700.4753	2704.9451	2705.1077	2703.9761	2704.3696	2706.9084	2711.3333	2713.0154	2706.7339	2704.3508	2702.6287	2700.7803	2698.8484	2695.1750	2691.7668	2689.0906	2687.5752	2685.3923	2680.5957	2678.0623	2676.9780	2675.6826	2673.5205	2672.7285	2677.0632	2676.5823	2674.7349	2668.0591	2658.9048	2650.3711	2645.0840	2640.1531	2635.1794	2627.7222	2620.8826	2615.0720	2607.3247	2594.6458	2582	2568.4631	2552.0361	2538.2378	2540.7256	2535.7498	2528.6663	2519.0933	2512.3181	2503.6809	2496.6240	2489.0505	2483.4702	2477.0305	2471.2712	2465.5588	2460.4546	2455.9497	2451.9907	2445.4780	2437.1516	2432.1729	2424.5005	2423.2898	2419.3188	2417.0300	2416.3005	2422.2397	2420.1187	2423.2344	2432.1255	2415.7268	2422.2947	2431.7883	2441.3330	2451.5833	2460.6948	2455.8088	2451.3547	2450.6082	2454.1587	2432.9280	2406.2620	2398.6433	2411.1331	2408.5403	2387.9924
2494.1848	2493.3074	2493.9531	2503.9529	2505.8955	2502.2627	2514.1885	2528.5227	2538.7180	2551.7996	2562.9382	2572.0139	2575.0803	2583.9038	2594.3992	2597.1206	2596.8865	2595.2793	2592.8438	2591.1074	2588.6543	2581.2375	2568.9714	2571.8142	2580.4067	2592.3489	2602.6003	2612.0652	2597.9868	2576.1726	2556.3906	2538.0049	2521.1934	2528.2417	2552.3088	2575.1509	2581.5061	2589.9846	2591.8533	2595.6411	2597.5615	2598.3560	2604.1360	2608.2515	2614.1389	2623.8457	2633.6260	2641.2578	2654.7642	2656.5317	2660.0288	2659.4146	2657.7322	2655.2085	2647.5640	2642.6687	2635.5247	2629.2849	2616.2437	2611.9856	2608.4338	2604.8982	2603.7214	2605.0195	2600.6648	2589.0806	2574.0781	2571.4307	2589.2488	2606.7332	2622.3691	2636.6270	2641.0217	2640.5273	2650.2793	2660.4680	2672.9675	2667.6477	2666.5664	2665.3511	2663.1375	2660.3521	2652.7136	2640.5728	2631.2085	2617.7781	2607.2153	2595.8147	2583.6563	2570.1118	2554.8818	2532.9387	2531.5234	2544.6235	2539.4067	2533.9934	2522.2849	2518.8291	2525.6934	2548.0569	2573.0090	2595.9116	2633.3257	2633.5962	2624.2244	2627.4475	2638.1858	2658.0315	2673.4404	2682.7615	2681.0244	2682.6436	2684.1858	2692.8816	2701.5889	2701.1104	2701.9495	2704.3984	2704.8660	2706.1248	2709.8042	2714.2896	2716.3582	2712.9080	2709.1506	2709.2656	2704.4556	2703.0930	2698.7161	2694.2952	2691.1655	2690.3962	2687.5198	2686.4167	2685.3374	2683.2405	2681.7964	2681.0745	2687.5039	2692.3682	2697.0212	2695.6812	2688.3777	2675.5071	2666.1040	2655.6118	2649.1082	2641.6816	2636.7126	2629.4424	2624.0889	2615.4421	2606.2415	2591.3682	2573.7151	2553.2637	2555.1438	2555.1570	2541.3933	2530.9172	2520.5212	2512.6123	2501.6216	2495.5635	2488.7781	2482.4829	2476.0735	2467.3894	2461.0376	2454.8970	2449.6450	2443.5735	2436.7927	2431.4558	2436.6411	2432.0264	2428.6367	2427.0916	2428.5793	2424.9250	2412.9548	2410.2263	2411.8081	2418.0142	2408.8982	2418.5225	2429.7229	2439.2109	2451.3936	2462.5305	2469.4949	2469.0247	2465.8455	2454.1277	2435.7925	2417.2678	2418.6885	2424.5869	2419.4976	2395.1743
2495.3855	2509.8447	2509.7014	2511.3572	2511.3242	2504.8867	2509.9236	2525.5239	2541.3630	2554.0012	2559.5452	2564.7695	2568.9304	2580.3860	2591.3694	2597.8755	2601.5479	2598.7791	2596.0063	2593.7483	2589.9534	2578.3726	2576.1484	2586.0874	2593.0605	2598.4666	2606.5242	2611.6855	2598.0945	2580.7620	2560.8975	2538.7075	2522.3689	2530.3220	2554.6372	2581.0225	2591.9885	2598.3240	2605.4663	2609.3174	2610.4163	2610.5420	2613.5120	2615.5215	2621.7563	2630.3579	2642.7261	2649.9614	2661.1992	2667.5620	2668.2002	2666.2102	2664.0256	2660.7942	2653.8145	2647.9143	2640.6211	2635.3823	2625.1963	2626.1118	2622.9685	2618.4858	2614.5056	2614.5381	2608.1624	2598.9941	2577.5337	2575.1240	2588.8135	2603.7649	2627.1968	2661.5027	2654.3284	2650.6995	2658.5430	2670.7444	2675.1321	2673.7307	2678.5337	2685.8625	2679.1038	2688.8506	2674.0725	2662.0730	2651.9612	2630.8074	2615.6941	2604.5259	2600.9934	2593.9292	2577.3794	2547.2310	2550.9136	2561.6843	2561.3625	2556.1174	2540.6384	2526.1460	2522.2795	2532.3625	2556.5129	2577.5088	2594.1248	2604.3450	2618.9561	2627.4094	2638.2058	2658.6118	2685.1790	2683.3792	2682.9666	2685.5972	2686.4626	2688.1633	2691.0171	2696.4878	2706.9929	2702.9519	2704.9832	2706.9851	2710.1274	2712.8792	2713.9822	2714.9968	2714.2693	2712.7131	2713.2043	2708.6775	2703.3237	2701.4351	2699.8975	2695.4790	2694.2996	2693.8120	2690.2000	2687.0725	2685.5498	2686.9375	2688.4390	2693.9402	2698.4924	2694.9092	2688.8669	2684.2766	2676.5349	2666.6917	2656.0569	2650.4131	2645.0710	2637.4661	2629.3411	2619.8840	2605.7114	2591.1921	2574.3206	2566.6941	2564.2268	2561.1282	2545.4868	2532.3281	2519.9126	2506.3730	2500.1484	2493.5134	2487.1914	2482.1353	2478.5076	2473.5037	2467.4912	2458.4895	2448.6638	2437.2834	2444.0313	2446.8472	2450.2693	2447.6509	2447.1880	2445.0667	2441.8853	2440.6384	2430.5315	2419.4702	2410.0059	2406.6965	2404.9912	2410.2026	2421.6414	2433.6897	2442.6921	2455.6296	2469.4385	2469.4695	2466.1748	2453.5115	2442.6809	2432.4033	2424.8962	2418.7122	2407.9670	2393.6377
2513.2427	2520.6843	2523.8774	2525.6543	2516.3875	2506.9431	2513.0564	2525.0774	2529.2722	2539.9922	2548.4714	2553.7251	2561.5378	2571.8408	2582.4705	2590.0574	2596.3083	2599.1882	2598.2119	2596.7302	2592.2568	2580.5386	2585.2827	2597.3171	2601.5850	2601.6011	2601.8145	2598.9678	2591.4873	2579.4050	2558.6643	2537.1704	2522.7739	2529.6965	2558.6155	2579.2336	2598.1318	2605.4194	2613.5989	2616.8088	2619.9153	2619.9763	2621.0535	2623.6001	2627.5022	2634.2793	2647.0601	2654.9792	2666.5129	2676.2417	2683.8608	2681.8113	2670.8845	2666.1255	2659.4114	2651.0979	2645.9634	2640.5173	2630.6243	2633.1858	2637.3540	2630.9529	2627.7700	2625.6265	2621.9255	2612.7151	2592.7756	2576.3032	2583.3137	2600.0613	2618.7412	2637.2747	2660.3281	2664.3931	2667.8042	2676.9885	2673.6230	2672.7393	2685.1877	2690.0955	2690.4075	2684.6470	2682.5554	2681.1079	2664.7161	2641.3728	2623.5840	2614.3589	2610.2231	2601.0850	2583.4736	2562.2439	2580.5891	2584.6650	2578.4639	2570.9561	2564.1738	2543.7834	2530.5972	2527.9556	2539.6240	2555.0588	2569.3665	2587.4868	2597.5906	2613.6548	2630.6877	2643.4644	2658.0906	2664.6643	2671.2173	2689.3984	2682.3704	2680.3892	2685.0779	2692.0303	2696.1025	2701.0293	2703.4351	2704.9736	2708.6333	2714.5779	2714.2764	2714.9443	2715.4524	2715.5967	2717.4084	2714.6035	2713.7224	2709.2856	2708.1089	2708.5286	2704.9854	2699.0686	2692.8887	2688.2312	2685.5376	2684.6875	2685.5081	2687.5754	2686.9495	2687.1296	2683.3125	2683.1709	2683.3887	2669.1167	2659.3308	2657.3882	2653.9626	2644.7056	2631.7603	2619.1379	2606.7422	2594.0066	2582.5652	2573.6030	2566.3596	2556.7083	2545.0605	2533.3750	2525.4243	2519.1306	2507.0024	2498.3477	2491.7642	2486.8418	2481.1992	2475.3201	2468.8706	2460.3489	2448.6746	2447.1060	2456.2034	2461.6697	2464.4827	2460.8403	2460.5632	2456.7261	2453.2268	2450.1169	2440.3059	2431.6597	2423.7466	2416.4963	2403.8953	2402.7363	2409.2014	2427.5603	2438.7368	2450.1165	2464.6733	2470.9709	2465.8237	2458.6948	2452.1223	2438.7583	2428.1353	2420.0298	2412.2009	2396.7966
2527.3535	2535.8896	2539.3137	2534.5193	2515.9688	2510.2900	2524.4470	2540.6228	2547.2642	2549.5229	2552.8223	2559.0842	2565.1392	2572.0625	2579.1980	2590.1309	2597.5713	2602.0706	2601.7434	2599.6990	2594.9133	2588.1025	2592.7922	2601.9329	2607.9482	2604.2813	2596.1309	2588.8252	2580.3872	2573.0371	2558.1079	2538.9346	2524.4065	2532.1492	2559.9243	2575.2175	2595.4888	2602.8472	2612.7192	2620.8064	2626.2515	2627.4756	2627.9409	2629.7573	2637.4766	2641.2866	2650.2637	2657.9443	2668.7720	2680.8381	2687.9980	2682.8057	2676.8499	2669.8389	2664.4177	2657.8792	2653.5178	2645.5796	2645.3962	2644.7063	2643.4570	2644.2258	2642.3770	2638.0269	2633.3027	2622.9507	2602.3977	2590.5405	2578.9170	2594.0728	2610.9382	2626.6880	2646.4841	2677.4360	2677.5486	2666.2476	2665.5388	2667.4573	2677.5420	2684.9492	2694.4417	2687.4888	2684.2627	2681.6521	2680.8274	2652.5588	2637.6956	2632.8152	2619.1230	2603.8618	2585.8076	2586.1685	2603.1777	2613.1265	2598.5527	2584.1519	2574.0288	2562.9219	2547.6340	2536.8948	2531.7483	2536.7605	2549.6431	2565.4583	2584.5137	2602.4260	2618.6829	2632.2048	2641.8923	2649.6606	2663.1719	2672.1313	2667.3071	2676.1941	2690.3159	2692.7859	2695.5059	2697.0864	2699.0847	2707.7603	2709.3635	2714.2136	2717.2783	2714.9170	2715.9583	2716.9724	2719.1104	2723.1401	2717.8770	2717.3501	2720.1135	2722.2170	2723.0127	2714.3083	2697.2026	2686.3960	2680.2600	2678.7476	2676.2600	2677.8311	2677.9277	2677.8350	2675.5957	2677.0474	2675.1077	2664.0488	2655.0869	2650.0703	2651.7097	2646.4287	2631.6563	2619.1226	2606.6838	2594.6409	2583.6982	2574.2427	2565.4985	2558.7361	2549.6357	2540.8276	2534.9707	2526.8672	2516.0103	2505.3286	2496.2402	2490.4277	2484.4756	2477.7358	2471.2676	2464.5825	2459.9429	2446.9863	2457.3921	2468.8894	2471.4084	2471.3899	2470.7908	2466.2419	2466.4810	2456.5227	2448.1494	2438.2493	2430.2510	2420.8933	2410.7908	2403.1880	2399.7688	2414.3123	2427.9216	2444.2446	2457.0376	2469.4102	2466.4143	2461.3452	2455.1763	2447.1663	2436.8093	2427.6956	2412.0691	2403.7625
2541.1138	2544.8711	2549.5691	2536.7554	2516.7383	2518.9771	2538.0750	2553.0801	2561.1064	2565.7224	2573.2163	2574.4263	2577.1799	2583.6672	2588.8894	2594.5640	2599.2598	2605.4348	2605.6643	2603.4856	2601.9556	2599.1189	2604.1487	2609.0889	2612.4229	2606.7756	2593.3394	2581.7593	2571.4604	2559.9939	2551.8210	2538.7925	2526.3474	2528.4519	2555.9082	2571.1548	2590.8259	2601.3828	2609.4255	2620.1548	2626.5762	2628.4756	2631.6697	2633.2080	2637.5940	2643.8816	2650.5525	2662.8430	2673.2900	2683.9800	2681.8328	2680.2454	2677.5828	2673.7302	2667.7908	2665.0544	2661.1667	2657.6252	2657.4751	2650.5525	2655.0474	2654.2583	2653.1807	2647.8198	2645.2275	2627.3936	2619.1492	2608.1343	2590.1433	2586.3865	2599.6755	2614.8638	2633.6482	2657.2834	2685.6375	2662.5413	2659.8728	2668.3601	2680.2983	2681.8054	2690.4128	2699.1174	2690.5967	2678.7014	2670.0745	2665.9177	2654.1438	2639.1580	2622.1516	2607.4268	2585.6777	2608.0999	2622.6167	2630.6421	2611.8979	2600.3699	2589.8896	2583.7891	2572.0869	2560.6587	2546.6904	2540.3418	2538.0208	2548.0662	2566.9019	2585.5369	2608.0469	2623.8708	2625.2493	2630.8521	2643.5972	2656.0146	2651.5425	2665.8066	2686.2432	2688.0388	2691.1250	2688.1394	2690.0803	2698.7778	2704.9375	2707.6653	2709.3560	2709.1379	2709.5002	2716.7546	2713.7422	2714.5842	2717.8020	2716.1189	2718.5593	2727.7087	2731.1545	2722.1304	2703.6938	2683.2458	2672.8035	2668.2759	2664.2961	2668.8452	2668.3787	2669.6594	2667.3066	2670.0618	2666.8306	2657.7395	2649.6211	2641.8884	2640.9792	2634.0115	2624.4226	2612.3936	2603.7463	2593.3730	2582.6824	2573.9238	2566.4783	2559.1636	2553.6252	2546.3057	2542.5051	2536.3452	2525.3228	2513.7788	2504.0537	2496.3784	2487.9263	2481.6606	2476.3542	2471.2781	2466.5791	2455.4885	2456.5159	2470.8657	2477.3123	2478.5591	2476.7854	2472.2935	2466.9727	2459.1924	2447.7527	2440.0139	2434.9387	2426.9861	2418.8472	2413.3252	2398.6472	2402.1509	2416.6646	2434.6711	2446.6726	2462.6953	2465.1978	2460.0725	2454.7844	2449.0378	2441.8728	2432.3242	2421.4526	2411.4688
2547.2734	2550.8694	2553.4485	2541.1411	2518.5557	2523.0352	2540.7813	2557.3850	2569.4502	2577.2192	2585.3784	2586.0786	2585.7690	2591.9739	2598.0747	2602.0889	2603.1260	2605.0105	2606.3757	2607.5503	2609.9316	2610.0193	2612.5166	2615.7522	2614.6279	2610.6433	2603.0515	2590.2595	2576.4927	2568.3870	2560.4653	2549.6362	2527.9207	2528.4893	2546.4744	2560.7761	2576.0024	2591.4993	2600.7869	2610.0522	2620.4905	2622.9685	2627.7783	2632.0525	2637.1592	2643.5635	2649.7468	2658.3704	2673.3438	2679.5518	2680.2769	2678.5259	2675.8662	2673.4441	2668.7942	2667.3923	2666.6526	2667.5527	2664.4597	2660.5425	2660.7925	2661.0452	2660.0366	2658.6287	2655.5779	2636.7092	2636.0593	2625.8738	2606.2881	2594.3252	2589.7766	2605.8538	2624.0806	2648.6658	2660.0291	2658.9314	2656.5193	2668.5520	2681.5093	2688.9834	2696.3467	2701.8425	2689.0176	2691.6006	2688.8352	2683.6079	2670.5945	2645.0334	2626.7813	2610.1421	2594.8979	2619.8513	2630.9160	2637.3542	2628.5139	2621.1082	2610.1165	2598.9756	2591.2400	2582.3892	2570.3066	2552.4775	2553.5322	2546.1150	2552.9905	2572.0100	2592.4165	2603.7441	2609.4312	2617.3186	2627.8220	2636.2441	2638.1772	2653.3230	2668.7585	2669.7656	2681.5320	2695.2390	2700.8308	2698.2683	2699.9973	2702.0576	2704.5952	2705.6831	2706.6228	2708.0740	2708.5527	2710.2629	2711.2781	2712.3162	2711.4216	2714.6821	2719.2378	2714.4675	2701.4365	2687.4590	2672.2119	2661.2751	2655.4919	2654.4907	2655.7598	2659.1716	2656.1831	2660.0986	2657.5767	2651.2993	2643.8557	2633.8945	2626.9233	2622.7512	2613.2373	2604.5139	2597.5933	2588.0205	2578.6880	2570.2949	2563.2014	2557.4548	2549.5767	2543.8770	2539.8003	2538.1045	2532.9646	2520.7332	2511.4058	2502.7119	2494.0986	2486.4399	2480.0593	2474.7109	2466.4944	2451.3931	2463.1482	2476.1899	2482.0237	2482.9497	2481.6599	2474.3784	2466.8765	2460.1770	2454.3027	2447.8616	2441.2285	2434.5999	2426.6785	2420.7422	2404.0979	2394.7935	2405.7852	2426.3042	2443.5237	2458.2847	2459.8125	2456.2021	2452.4167	2448.2214	2442.6575	2433.4370	2426.8271	2413.0032
2555.7817	2555.2036	2555.1926	2539.2073	2519.0537	2526.4087	2535.9768	2548.3923	2567.5979	2577.5110	2580.1060	2581.4866	2582.9670	2586.8672	2593.3499	2596.3879	2600.5803	2604.0835	2607.5352	2609.5581	2613.8975	2616.1123	2620.3127	2622.5027	2622.1030	2618.9336	2612.8921	2598.5742	2593.0015	2586.9529	2575.2170	2552.3049	2529.3464	2530.3599	2536.4429	2551.0474	2563.1687	2573.9800	2585.1521	2596.6855	2609.9348	2618.2805	2624.8279	2629.4165	2634.3003	2639.8237	2645.1094	2655.8865	2668.6604	2674.4304	2678.0283	2677.4827	2677.0691	2676.1885	2673.3296	2671.4670	2671.2310	2673.0618	2672.6531	2669.7358	2666.6191	2666.2007	2666.3682	2665.7078	2663.7761	2649.8108	2648.4250	2642.7444	2624.7048	2608.6440	2593.8696	2604.1392	2617.9785	2629.1726	2639.5281	2647.7744	2655.6001	2669.5815	2688.1433	2705.8752	2696.0979	2692.3799	2691.2212	2696.1479	2694.6321	2693.4404	2680.3264	2654.9116	2639.7156	2630.1538	2613.1733	2625.3081	2639.3489	2652.6191	2645.4148	2640.1155	2630.0251	2620.8545	2607.6965	2593.7056	2578.4934	2572.0808	2574.5339	2565.1802	2551.9026	2553.7256	2569.9141	2584.8044	2592.1296	2606.3938	2617.1421	2619.7236	2626.2773	2635.1826	2642.7156	2665.4209	2689.6763	2710.6292	2714.8489	2711.2776	2704.7131	2704.7493	2709.9009	2708.2109	2706.6172	2707.1548	2707.7715	2708.0396	2711.0732	2711.6357	2707.1536	2704.6836	2705.3909	2707.6663	2701.2344	2690.1956	2678.1833	2663.1038	2652.5820	2646.6238	2645.8860	2650.0918	2645.8965	2648.1758	2646.5901	2640.3538	2632.1360	2626.6677	2621.2583	2611.6226	2603.5981	2598.0964	2592.1860	2585.5562	2574.8572	2564.5911	2556.9495	2549.6016	2543.0259	2536.9854	2531.4155	2528.6865	2528.2551	2520.5754	2512.2498	2503.8682	2495.1250	2486.3125	2480.2344	2473.5718	2464.8997	2455.3235	2470.9353	2480.3435	2489.7783	2492.1582	2482.2917	2475.4224	2467.4153	2459.1821	2454.2922	2449.4333	2442.3494	2434.8650	2421.2983	2419.2690	2412.7661	2396.2488	2395.2449	2415.9958	2431.5225	2443.6497	2451.7744	2451.0066	2448.8953	2446.7651	2444.1438	2438.9756	2429.7549	2429.5300
2563.2324	2560.4358	2555.8225	2538.1187	2523.8965	2536.6941	2553.8303	2559.7866	2562.7312	2563.7649	2570.9985	2576.7930	2583.4888	2587.9436	2591.1152	2594.4717	2598.4099	2602.7085	2607.3984	2611.2581	2616.4119	2621.4126	2626.6726	2628.9409	2630.2507	2628.9673	2625.3022	2616.5757	2612.5833	2606.4841	2585.4812	2556.1946	2537.1362	2532.1123	2542.0483	2556.2720	2569.5955	2577.9998	2591.5859	2602.1775	2610.5557	2620.7747	2625.2732	2624.9119	2627.4946	2632.1111	2642.7773	2655.9053	2672.0720	2677.1096	2683.6343	2681.1494	2679.9509	2678.9307	2676.4543	2675.1809	2676.3208	2679.9951	2682.0054	2677.9390	2673.9907	2671.4719	2671.1494	2673.1860	2669.1350	2664.0195	2660.8845	2650.8147	2636.1050	2619.0654	2599.9053	2604.8376	2624.8894	2638.8857	2646.2051	2651.5002	2668.7437	2674.3762	2681.6487	2692.9116	2690.5137	2690.7407	2692.7087	2695.7686	2695.6338	2701.1155	2687.4385	2664.0308	2650.9001	2639.8770	2621.6021	2633.8726	2649.4097	2667.6062	2660.5959	2652.3716	2646.6831	2644.5220	2628.8086	2607.8528	2596.9834	2590.4983	2588.8298	2587.3027	2574.6980	2562.1448	2555.1125	2564.4272	2579.3462	2597.5962	2606.8469	2604.9580	2617.3450	2620.4890	2640.7019	2670.1028	2706.9431	2722.0364	2721.6279	2713.3416	2707.4307	2705.0762	2706.4849	2710.0352	2709.7419	2708.2605	2707.8147	2709.5969	2714.9502	2716.5449	2710.5840	2704.9155	2699.7061	2699.2068	2693.7422	2684.7676	2674.1753	2665.0378	2655.1189	2648.4133	2643.2620	2638.9543	2639.2329	2634.4004	2632.5518	2628.1006	2623.2170	2618.5891	2611.1951	2604.4155	2592.4019	2589.5649	2587.1965	2581.4097	2570.2056	2558.4260	2549.5225	2541.2810	2535.0010	2529.4844	2525.1404	2521.4377	2524.9871	2517.6589	2509.6104	2503.3594	2497.0020	2490.2236	2482.9368	2475.9333	2463.3799	2461.6758	2476.7168	2487.8953	2493.7561	2495.6504	2485.4861	2475.0847	2466.2231	2457.6716	2449.0664	2440.4570	2432.6404	2422.7683	2416.1685	2412.6741	2404.4958	2402.0388	2392.1226	2402.7029	2418.9451	2435.9851	2442.7512	2446.5183	2444.5171	2444.3142	2443.8438	2442.0347	2440.8621	2437.7908
2570.2148	2565.5022	2557.3159	2543.7866	2532.7693	2536.1514	2558.5137	2570.7698	2579.0530	2580.9465	2581.0918	2585.8198	2589.6802	2594.2402	2597.5208	2600.5125	2604.2002	2608.1052	2611.2720	2614.4866	2619.9192	2627.7500	2634.5012	2640.0728	2642.2798	2639.5544	2637.1189	2632.0732	2630.6709	2613.4512	2589.8748	2560.2131	2537.3274	2533.3362	2538.6504	2546.1753	2561.5137	2576.1135	2586.0881	2592.2588	2596.7405	2601.5825	2609.0425	2613.1545	2616.0327	2628.0620	2636.9092	2648.7407	2666.1187	2669.1680	2681.2961	2681.0430	2679.8792	2680.8284	2680.9143	2680.0645	2682.2063	2687.1245	2687.5466	2685.4927	2685.2410	2682.4980	2681.9910	2681.7925	2675.4250	2670.5657	2661.9453	2652.1187	2632.4128	2617.3101	2610.7090	2606.3320	2625.1333	2651.4451	2649.6042	2653.9849	2665.3569	2678.8640	2683.3865	2691.4753	2696.9617	2692.4673	2693.0183	2695.4248	2695.3955	2707.0488	2696.9270	2674.0806	2656.2725	2644.4978	2634.9319	2647.7441	2662.9797	2676.7329	2673.4648	2664.6973	2655.0547	2647.2998	2637.1387	2629.4263	2619.5862	2611.0989	2602.8835	2600.6760	2596.2529	2581.5676	2570.3716	2562.0293	2565.6577	2579.3154	2587.7744	2600.0881	2602.9050	2611.1311	2636.8748	2665.1274	2694.7639	2712.9355	2713.8708	2710.5784	2706.9761	2704.2227	2704.8848	2708.0579	2709.7532	2709.2729	2714.7480	2716.3052	2716.8938	2719.9272	2719.5979	2716.5876	2703.5630	2696.3452	2694.1538	2691.4072	2681.4878	2673.8560	2667.8086	2659.2209	2648.9661	2640.1770	2633.2791	2624.1521	2619.1140	2616.4912	2613.9346	2615.4185	2609.2847	2603.0315	2591.2244	2581.5825	2573.6121	2572.3855	2563.8359	2555.1431	2545.6296	2535.2043	2528.0701	2521.1772	2515.7939	2514.6545	2520.1926	2519.2593	2512.3687	2505.3203	2497.8286	2490.6660	2485.3877	2476.0747	2461.4373	2476.0291	2484.7085	2491.0183	2495.4636	2494.8955	2481.8960	2471.5469	2464.2097	2456.8408	2448.3433	2440.8008	2442.4631	2438.9900	2432.9116	2429.5098	2420.0049	2412.5388	2389.8701	2391.0024	2408.1086	2424.7212	2433.4763	2439.9226	2439.0769	2441.7163	2442.4353	2442.6841	2440.8491	2439.1858
2579.1653	2571.6589	2563.1572	2553.4802	2545.2979	2529.9155	2554.5872	2572.8245	2583.4058	2585.2146	2586.3394	2588.7166	2592.8208	2597.8208	2601.0813	2604.5090	2608.9089	2613.3281	2616.4873	2620.0386	2624.9475	2633.2791	2641.1533	2648.2900	2652.6941	2649.8591	2645.8835	2638.4131	2620.3369	2601.2451	2581.5098	2561.8069	2540.4600	2534.5190	2544.3557	2551.5996	2548.2439	2561.2419	2572.1892	2576.7949	2576.6914	2579.8584	2586.1699	2593.1934	2607.8240	2612.6533	2621.6572	2635.3938	2649.5381	2660.7163	2671.7075	2673.8271	2680.6423	2683.7961	2685.5100	2687.1553	2688.6226	2693.1899	2695.2932	2693.1428	2693.0044	2693.6929	2688.6067	2690.2952	2680.0017	2666.3430	2657.5645	2646.0334	2635.4907	2637.8682	2627.9333	2612.0410	2618.0439	2630.6658	2639.4558	2647.0649	2656.0969	2665.6897	2677.1553	2696.5974	2714.7517	2701.2458	2694.8330	2694.3774	2697.9941	2717.1138	2707.2280	2685.6851	2663.8552	2652.1426	2643.9360	2657.7771	2683.2734	2696.6069	2688.9143	2681.1897	2671.5378	2660.7004	2661.1157	2653.7827	2643.0869	2630.7957	2621.7937	2614.9634	2608.3389	2591.6736	2577.0210	2566.8389	2566.5757	2569.6458	2580.3694	2588.9155	2590.7166	2604.7971	2626.2095	2651.5732	2681.0222	2698.5342	2702.9534	2700.8586	2701.0251	2700.9473	2703.4932	2705.8440	2707.2273	2709.3350	2712.3333	2714.3704	2717.2520	2720.3755	2724.5215	2729.2473	2707.4067	2700.9424	2698.9917	2696.8350	2692.7393	2688.5059	2682.0884	2673.2483	2661.8435	2648.0132	2635.9465	2629.2217	2621.3416	2608.8638	2603.6506	2603.8728	2599.0037	2591.1418	2583.3977	2574.7991	2567.9841	2562.2769	2557.8193	2549.1475	2539.5796	2529.6589	2521.1646	2517.2288	2516.8853	2508.7354	2510.3298	2516.9595	2513.4683	2507.6833	2500.3003	2493.2053	2484.2729	2473.0049	2468.9993	2483.5425	2490.4016	2495.9387	2502.0610	2497.1160	2486.5820	2475.5850	2468.4211	2463.2283	2456.9788	2452.8486	2448.5913	2447.4912	2444.8899	2440.0798	2434.1165	2417.6396	2403.4041	2387.5627	2395.0959	2413.6323	2424.7314	2430.3840	2434.4136	2439.9343	2440.7749	2440.4214	2439.6621	2438.3369
2584.8706	2578.3655	2571.0310	2564.3787	2550.3596	2532.4456	2554.4014	2567.5347	2573.2126	2572.5173	2574.9780	2580.1484	2585.5176	2592.7939	2600.5034	2605.4297	2610.0310	2615.8137	2620.4094	2624.5273	2629.9312	2638.6333	2647.5693	2653.6382	2656.1069	2655.7227	2646.9426	2636.3630	2618.4165	2598.4910	2576.2637	2556.9597	2543.3513	2534.3708	2546.0349	2562.8867	2560.0461	2556.3672	2558.7393	2561.8892	2572.6150	2580.8403	2581.0706	2588.0962	2593.5562	2604.5659	2615.5361	2623.2532	2634.3914	2645.6108	2656.8811	2667.3730	2680.3555	2685.2654	2687.2532	2689.4446	2694.1184	2698.9924	2698.8298	2697.6631	2698.3091	2697.7180	2692.8777	2689.1311	2680.3108	2665.2664	2649.4109	2647.7529	2654.0342	2652.5657	2645.1875	2628.1187	2618.2737	2618.7156	2629.9373	2637.9390	2646.5645	2654.0298	2667.0642	2687.0142	2714.7500	2719.1646	2701.1738	2695.3035	2696.4111	2706.9424	2713.2288	2698.6692	2680.8784	2659.1677	2649.3425	2662.7190	2687.9309	2712.2136	2706.0293	2694.9988	2689.0579	2681.9016	2684.4495	2681.0264	2665.3833	2650.3621	2641.4819	2629.1118	2610.5981	2590.6816	2573.9185	2579.9419	2575.5679	2575.0991	2573.3750	2581.5146	2599.4771	2603.1296	2615.6978	2640.4487	2664.5432	2681.4905	2691.4678	2700.0264	2707.3992	2706.8330	2706.1729	2708.6130	2707.5051	2709.4233	2710.1218	2711.6877	2717.3630	2718.9629	2723.4683	2717.0725	2709.7876	2702.5500	2702.7734	2705.5166	2700.6216	2695.8103	2691.0544	2682.5427	2673.0393	2660.7644	2646.4846	2630.4893	2615.9092	2607.9187	2603.7246	2594.9929	2589.6829	2580.0068	2573.4597	2566.8179	2561.2581	2557.8462	2555.1936	2542.6206	2529.4797	2530.3064	2532.2278	2533.9517	2528.4060	2518.8635	2505.0273	2503.1519	2509.2310	2506.3633	2499.5081	2493.1125	2480.1401	2475.1951	2477.2253	2487.3232	2497.1440	2505.3750	2505.5745	2499.7278	2492.1704	2481.1729	2478.0894	2469.9431	2462.6545	2454.4480	2447.5376	2439.8137	2444.2478	2446.9368	2441.9067	2426.4875	2410.7275	2393.0520	2387.8518	2401.5127	2414.3455	2425.7813	2433.1318	2437.3879	2437.7952	2436.9558	2436.7813	2436.2556
2591.1560	2582.2400	2568.9023	2556.8730	2545.9399	2534.7112	2541.0105	2550.6313	2557.1492	2569.3838	2576.8926	2579.4365	2585.7354	2594.7458	2603.3367	2608.1018	2614.4958	2619.1665	2623.6538	2627.8325	2632.8967	2641.0007	2651.7888	2657.5852	2657.6265	2651.7529	2635.5752	2626.0667	2615.0417	2601.4177	2589.6277	2567.9365	2544.5410	2535.1096	2552.7466	2577.3965	2577.7625	2573.9629	2576.9258	2582.3838	2594.5969	2601.2295	2599.6213	2588.9197	2598.6021	2617.6184	2627.3669	2636.4058	2648.4407	2655.4302	2662.2537	2670.3645	2680.9436	2691.4438	2692.4089	2693.2590	2694.3022	2697.2632	2698.1880	2698.4395	2697.5288	2699.1309	2695.2373	2686.8523	2683.2927	2678.7585	2662.0974	2666.8442	2670.2505	2668.5676	2661.5120	2645.1042	2637.3884	2623.2612	2628.9309	2641.9624	2651.1960	2658.5820	2666.8540	2680.8936	2703.8987	2723.9358	2709.4099	2699.9529	2698.5962	2705.0813	2718.6414	2704.3604	2686.6729	2666.0283	2656.8799	2674.5422	2691.2288	2717.5515	2725.4495	2713.9553	2702.4241	2702.1211	2704.3345	2699.8818	2689.8301	2672.4297	2655.9797	2644.4434	2620.0322	2594.0103	2598.2229	2594.8462	2588.3689	2584.0178	2575.7029	2578.2354	2594.6257	2611.1829	2616.0642	2633.2173	2660.1553	2676.8926	2691.3730	2701.7820	2709.1978	2715.3464	2713.6692	2710.0525	2710.6233	2710.6863	2711.4324	2712.8130	2714.2297	2716.3506	2716.5352	2714.9199	2712.5979	2708.5098	2706.0398	2707.3284	2709.6113	2704.2256	2700.3213	2692.5552	2685.2979	2672.4441	2660.2341	2645.2908	2632.6074	2621.4941	2615.8506	2604.9802	2594.6150	2583.6086	2580.8013	2574.7202	2567.9128	2562.7646	2555.1685	2541.9409	2546.8242	2550.6223	2547.8716	2542.3904	2533.2778	2523.1270	2512.7405	2501.2739	2499.3237	2499.1709	2494.3523	2487.8469	2477.2417	2491.3875	2492.2085	2494.4255	2502.2231	2511.0527	2511.1497	2502.7891	2496.2615	2495.7283	2487.3889	2477.4807	2464.9983	2454.0896	2445.1189	2437.4197	2431.4780	2433.4668	2430.7163	2424.6667	2415.2761	2401.2520	2383.1111	2393.0820	2410.7363	2422.5188	2429.5281	2432.7844	2432.7625	2430.3850	2431.9006	2433.0562
2595.7095	2585.8010	2568.3677	2561.9333	2555.4272	2537.2466	2554.0667	2566.5737	2575.7612	2587.2236	2592.4919	2592.6396	2591.0862	2601.6497	2610.5222	2614.5837	2619.6523	2622.8777	2627.5266	2630.7683	2634.6548	2641.1621	2651.3010	2660.9417	2653.4429	2639.9902	2632.9209	2621.1243	2604.2698	2594.9758	2576.8877	2558.9780	2545.3857	2534.9609	2551.3755	2579.1106	2592.8914	2594.0320	2598.1233	2604.8357	2612.6919	2619.2271	2615.9175	2600.6755	2598.3503	2620.7605	2632.9026	2645.9873	2658.7380	2666.4006	2670.9692	2679.3198	2683.2744	2689.3718	2692.9316	2692.3525	2695.2441	2697.8123	2697.0664	2696.9983	2698.1145	2696.5120	2695.1257	2694.7124	2693.6260	2679.0627	2680.7644	2690.2976	2686.5569	2686.1411	2680.9160	2665.8044	2654.4294	2634.1040	2632.4351	2646.8984	2656.2195	2663.3320	2670.0308	2679.9053	2687.6960	2725.9370	2729.9478	2712.0295	2703.7227	2703.6719	2709.5654	2714.7329	2691.0212	2675.1611	2665.9114	2686.0295	2705.1292	2717.2456	2722.8267	2724.9478	2717.8098	2712.3208	2711.6152	2706.0125	2696.1030	2684.0186	2658.9109	2643.5247	2626.7139	2626.5137	2624.7959	2616.5251	2606.1919	2597.4878	2589.9478	2584.1206	2585.6077	2602.8813	2615.2041	2630.2126	2652.2085	2672.5488	2690.1140	2702.7468	2709.5967	2714.2173	2716.3462	2715.9417	2713.6194	2713.0044	2714.4578	2721.0374	2720.1987	2717.0828	2719.3369	2717.9773	2713.0425	2712.0239	2713.5632	2715.7153	2714.1372	2709.5862	2703.8306	2697.3379	2694.0220	2688.8064	2676.4810	2664.7024	2652.4226	2642.6743	2630.8242	2613.1042	2605.9177	2600.1665	2598.8257	2591.3823	2583.0403	2579.2415	2570.6733	2565.3022	2563.8047	2560.2559	2552.1040	2543.2874	2535.0168	2523.9685	2512.9619	2505.2893	2498.5610	2492.9312	2489.8018	2486.8147	2500.4629	2508.1016	2506.3472	2504.6375	2503.1438	2512.4758	2513.4700	2504.2634	2496.9395	2491.9810	2484.1174	2473.9092	2462.3281	2451.7437	2442.3083	2435.6497	2424.5615	2416.7712	2414.1997	2411.0168	2404.2549	2398.6011	2385.4639	2384.6477	2400.2026	2414.4656	2422.6519	2425.3208	2424.8774	2423.4661	2426.4539	2428.5762
2599.2002	2590.6960	2579.0884	2573.1992	2564.3188	2543.4124	2556.8464	2571.4160	2578.9065	2589.2759	2598.6665	2603.0627	2602.6353	2606.2141	2618.5154	2624.6646	2628.3560	2628.5779	2630.6255	2632.5955	2635.2253	2638.4841	2646.0264	2652.3450	2641.8489	2628.2041	2624.8647	2617.5806	2607.2078	2596.6843	2587.2271	2572.4973	2548.7754	2536.9165	2547.9165	2583.3145	2601.2961	2607.1602	2614.4595	2624.4307	2629.8645	2632.5950	2626.1057	2607.9236	2602.6650	2619.6829	2635.7571	2649.3899	2664.0771	2673.0703	2677.7129	2682.1311	2684.1306	2686.1174	2688.0586	2690.6943	2697.3049	2695.6816	2696.6753	2697.9470	2698.1052	2698.4329	2699.8408	2697.6492	2693.2634	2695.4377	2694.7668	2696.1851	2698.3708	2700.2893	2693.3643	2676.7114	2662.3962	2641.4419	2630.3342	2641.4724	2650.4651	2660.1934	2664.6062	2668.8992	2672.3452	2693.1370	2751.7993	2726.4263	2714.0403	2715.0891	2713.9607	2711.7834	2696.3840	2687.7939	2678.6550	2692.0398	2719.2170	2734.5869	2735.4741	2730.7083	2734.8455	2726.5090	2714.3411	2707.7842	2696.0186	2684.1313	2671.0400	2655.6458	2643.1108	2626.2549	2636.7456	2633.2363	2624.2039	2610.7629	2595.6504	2591.3105	2588.9541	2590.7019	2606.2634	2626.3557	2649.6677	2672.6575	2694.2180	2704.5161	2710.3518	2714.4778	2714.6292	2714.7166	2714.4814	2711.9087	2712.4399	2716.2366	2719.7102	2723.4106	2724.0225	2721.8577	2716.0610	2712.2278	2713.1194	2718.7783	2716.9915	2714.3264	2707.9663	2702.1587	2697.6047	2692.7524	2688.2617	2678.5261	2670.5486	2657.9788	2641.5220	2629.0220	2624.5186	2620.0244	2613.6567	2605.1563	2599.1697	2592.8845	2584.6243	2576.0830	2570.2261	2563.1177	2555.7727	2545.6177	2534.5923	2525.9001	2519.2883	2515.0566	2509.2234	2500.0667	2496.1147	2506.5479	2521.7759	2527.0791	2519.5229	2514.5771	2513.4299	2514.4197	2511.2322	2502.1238	2492.9805	2486.3477	2479.7214	2469.9915	2461.8035	2453.9094	2448.1250	2442.7339	2436.0945	2426.6211	2415.9404	2413.6062	2407.8508	2401.5156	2397.7202	2380.7014	2387.6172	2405.6641	2413.7813	2414.1233	2415.3240	2416.2722	2421.4058	2421.8611
2600.5493	2592.3442	2581.4434	2571.3730	2559.9832	2546.7466	2565.4619	2581.4197	2592.9622	2593.9731	2601.5525	2610.8638	2611.3047	2610.8784	2621.5056	2630.2695	2632.9434	2632.4678	2632.7734	2633.9849	2634.2258	2634.8960	2636.1741	2639.5872	2630.8176	2616.7952	2614.2544	2608.4912	2599.6345	2588.4097	2574.6035	2568.2256	2547.9375	2537.8054	2545.2947	2574.8948	2595.7017	2611.7334	2625.6892	2636.8074	2640.8230	2645.5776	2631.1316	2613.3447	2611.8157	2627.2534	2644.0176	2657.9653	2664.1853	2670.3804	2674.3262	2678.7178	2679.7368	2681.8237	2685.0742	2687.1729	2689.8831	2693.9866	2697.7500	2699.1494	2700.4431	2702.3887	2705.4009	2702.8997	2699.1814	2700.4900	2700.9609	2700.0371	2701.7971	2705.3606	2702.6165	2691.8743	2673.0046	2653.5015	2631.7390	2637.8276	2645.2693	2653.3909	2653.5911	2656.1890	2667.0640	2682.0010	2695.8345	2721.1047	2731.3035	2733.5884	2726.8979	2721.4167	2709.2185	2701.3420	2698.3970	2699.5637	2722.8865	2748.3501	2752.3784	2743.7952	2745.5774	2738.7271	2725.3086	2715.8928	2706.2783	2697.8079	2682.0859	2668.1699	2652.9932	2634.4441	2639.4648	2641.3435	2632.7827	2615.9663	2611.5701	2610.8062	2607.8474	2596.4895	2601.2964	2619.7876	2642.8589	2670.2766	2697.1736	2702.8850	2705.1711	2709.9067	2711.0112	2709.5481	2707.8357	2707.5542	2707.9883	2715.1753	2731.3423	2728.3857	2727.1038	2721.8228	2718.6201	2714.2859	2711.5854	2714.7336	2717.4722	2712.0381	2711.7249	2707.5215	2707.0645	2702.6169	2694.6519	2687.3003	2679.8767	2670.0212	2657.6150	2648.4604	2644.1870	2637.6265	2630.3794	2619.7954	2612.8933	2604.9897	2595.7793	2585.6479	2574.0527	2566.4553	2557.5410	2550.5999	2542.3110	2535.2314	2529.2825	2522.5908	2512.5859	2499.4456	2510.2976	2523.7549	2542.4810	2540.6499	2529.3840	2522.9109	2519.9585	2520.8489	2513.6089	2504.0371	2494.1172	2483.8010	2476.9741	2466.2444	2459.2446	2453.6001	2448.1226	2443.1448	2436.4463	2429.4670	2424.4536	2425.4448	2423.8335	2408.7039	2403.1802	2389.8101	2378.5728	2395.5356	2402.1533	2400.8113	2402.0125	2411.2168	2416.0569	2414.6868
2598.5945	2588.3862	2574.5347	2562.9724	2551.0068	2560.0898	2577.3901	2591.1709	2602.8250	2606.1069	2606.0569	2616.6995	2618.6692	2620.0359	2624.2822	2631.1924	2633.1633	2633.4692	2633.9102	2635.4177	2634.5691	2630.2275	2626.4565	2624.4932	2624.0820	2612.1191	2601.0410	2598.1704	2588.1838	2574.3364	2560.1260	2554.9009	2541.5693	2541.2893	2549.5972	2571.9016	2595.1489	2617.8870	2622.3997	2637.6733	2644.5137	2649.0244	2641.9011	2623.1990	2613.4973	2631.2009	2644.9353	2659.3833	2667.0835	2667.8545	2671.7893	2675.5830	2673.1960	2677.9880	2681.8320	2686.8772	2692.1016	2696.8777	2700.4390	2702.0017	2704.3147	2705.1233	2707.3528	2706.3589	2705.6418	2704.4023	2704.1655	2704.8015	2706.5652	2709.0264	2699.8203	2687.0293	2668.9102	2655.5647	2647.8506	2639.5232	2643.2522	2650.4492	2658.7896	2665.5989	2661.0068	2668.9360	2686.5476	2703.6135	2718.5496	2745.1523	2746.9028	2733.7686	2718.3489	2709.5403	2720.5339	2709.2351	2723.3672	2748.3645	2769.0076	2759.7913	2758.3276	2751.9106	2737.7029	2726.8950	2718.3750	2709.1543	2697.2466	2679.0386	2659.2983	2649.6941	2653.2791	2650.5427	2643.0422	2632.5144	2634.1445	2632.6089	2628.4741	2613.6851	2603.3301	2612.4624	2631.8918	2659.6294	2686.8159	2694.8508	2699.8538	2703.7839	2703.8716	2702.4041	2698.4460	2699.0032	2703.6563	2707.3171	2720.7185	2725.8589	2724.9939	2721.3567	2716.8823	2713.6519	2710.2407	2714.1084	2707.6077	2707.3899	2707.3899	2707.3899	2707.3899	2706.0879	2702.6960	2696.0540	2690.6206	2681.2690	2674.6514	2669.5364	2665.9890	2655.2200	2645.0344	2637.1306	2625.3132	2615.2729	2605.9458	2595.5310	2583.7864	2572.1375	2561.9282	2553.9011	2545.4470	2537.7383	2530.3921	2522.7781	2511.0525	2508.2222	2522.9197	2538.6787	2556.1907	2554.7305	2536.6431	2528.6445	2526.8081	2526.1399	2518.7908	2507.3352	2494.9866	2486.5205	2477.8342	2467.3425	2458.5684	2453.7786	2446.7034	2436.2769	2423.3225	2420.7312	2418.1563	2414.9832	2419.0454	2404.0640	2397.5098	2395.4888	2378.5010	2373.8301	2381.1570	2380.5969	2393.7139	2402.2236	2407.3047	2409.7832
2593.5730	2588.6394	2580.5347	2565.0881	2553.1667	2574.5620	2587.9690	2600.9600	2611.1702	2614.6528	2616.9746	2622.2583	2625.7585	2628.2488	2628.7756	2630.7520	2632.3123	2636.4153	2635.2083	2634.0220	2632.3640	2627.8367	2620.5581	2607.1245	2610.5640	2608.4646	2597.5552	2581.8748	2579.9905	2563.6353	2548.6953	2542.3750	2541.5298	2544.0044	2558.6387	2576.4644	2589.0066	2602.9092	2621.0842	2637.6711	2644.7388	2649.1470	2648.0933	2632.1934	2613.1187	2635.6707	2650.0479	2655.8379	2652.8577	2658.1606	2663.0942	2665.4556	2666.2273	2673.2773	2683.3945	2691.3586	2697.2202	2701.4460	2708.0908	2708.6628	2708.8689	2708.6089	2707.5642	2708.1409	2708.8071	2711.4250	2707.6238	2709.8604	2712.7070	2714.6528	2704.1633	2692.2915	2677.1067	2670.5732	2659.6001	2645.7485	2643.5754	2659.4663	2671.1052	2680.5107	2668.2742	2669.8774	2673.6267	2691.3594	2705.6924	2739.3633	2757.1707	2739.8159	2723.4016	2717.3630	2717.0046	2720.0732	2729.6804	2747.1235	2767.2246	2775.8062	2773.9519	2768.1160	2757.1387	2744.5828	2734.2190	2724.7637	2710.1809	2689.6216	2675.3364	2669.6458	2673.5591	2673.0259	2663.0320	2659.9622	2658.8904	2656.9194	2652.1196	2633.4907	2620.6946	2608.6052	2620.0278	2645.7446	2665.3716	2687.3755	2695.8147	2696.6543	2694.5183	2695.5161	2689.7197	2696.1099	2707.9160	2706.5903	2703.3801	2712.5415	2720.1072	2722.0806	2715.8696	2713.4570	2709.0029	2708.2598	2707.3899	2707.3899	2707.3899	2707.3899	2707.3899	2709.5811	2708.6018	2705.5703	2697.5605	2694.2324	2691.8118	2684.1782	2682.2524	2671.7065	2658.2612	2648.0981	2640.4600	2627.8511	2615.8782	2604.5435	2592.6177	2576.4038	2565.0044	2554.4783	2545.2144	2536.3542	2523.4043	2518.7183	2511.2612	2525.4236	2534.6301	2547.7583	2562.0203	2553.6826	2539.5718	2534.4377	2536.0881	2529.7678	2516.3032	2502.0425	2490.0564	2481.2087	2474.3508	2465.9802	2457.4158	2452.7488	2447.6396	2438.9414	2427.7517	2412.3230	2407.7109	2405.5115	2402.7073	2395.6768	2385.7219	2382.6804	2377.1809	2373.3525	2371.8945	2368.3044	2372.3093	2389.7625	2390.4075	2403.5747
2593.4319	2584.9412	2577.8987	2564.1782	2557.7668	2579.0701	2593.5208	2605.3923	2613.4043	2620.4170	2623.9790	2627.8457	2631.2007	2631.5198	2631.4202	2632.5222	2633.2065	2638.5518	2635.5142	2634.6016	2630.8025	2626.4890	2618.0486	2601.6843	2590.7622	2590.6167	2589.6494	2579.9561	2564.7849	2555.4119	2545.9407	2544.7957	2548.3530	2561.0422	2567.7747	2584.4517	2601.1870	2613.0032	2622.8267	2634.3330	2642.2390	2647.6033	2647.3667	2637.9048	2628.5427	2623.4995	2629.3906	2637.6189	2638.4749	2644.5034	2648.5618	2658.1912	2665.5029	2676.9370	2684.7983	2692.5173	2699.0217	2706.9741	2712.6147	2716.4045	2715.3335	2713.8975	2715.2551	2713.5444	2713.8428	2714.8115	2713.0356	2712.9299	2714.4470	2714.3132	2716.3887	2701.0891	2681.9070	2666.1343	2657.2073	2651.8708	2647.1592	2656.8989	2666.8975	2674.4922	2680.0674	2680.7747	2677.0327	2683.6948	2696.8936	2723.1770	2760.6230	2737.2385	2727.3589	2724.9946	2721.4980	2725.7246	2737.4951	2763.4097	2777.1877	2777.4128	2781.2974	2784.3228	2777.4014	2765.7468	2754.2383	2746.0659	2726.1536	2702.4568	2691.2583	2690.0469	2693.7175	2693.2244	2688.5437	2684.1812	2685.4395	2677.8584	2667.9438	2657.9509	2644.1785	2629.2061	2619.6316	2630.9343	2648.0132	2703.7593	2686.9202	2681.9609	2682.2805	2682.6550	2690.2383	2698.4893	2711.8101	2721.2749	2700.7253	2701.3813	2712.0725	2717.9346	2716.8025	2711.6960	2708.4756	2709.3811	2710.7144	2708.4001	2707.5615	2708.4658	2709.2625	2713.0891	2710.8503	2707.3352	2705.4692	2706.1194	2702.1885	2697.7166	2695.1111	2687.4617	2678.9592	2665.6990	2653.4932	2643.7629	2626.4460	2611.8772	2595.2813	2579.7737	2562.5969	2549.3901	2541.2056	2538.7883	2533.0249	2517.0034	2522.3372	2537.7991	2545.4570	2554.3679	2558.9050	2551.3218	2544.4878	2541.4521	2538.1980	2529.8789	2515.2317	2500.8960	2487.1777	2476.9561	2468.6550	2462.1665	2455.7578	2450.7078	2446.6743	2437.3560	2427.3865	2417.0779	2406.6963	2396.5942	2391.1707	2387.1309	2387.8218	2381.6111	2381.3621	2391.9014	2395.3350	2388.6863	2373.0938	2371.0300	2377.3979	2392.0710
2585.2900	2578.3862	2573.0068	2566.6230	2564.4924	2581.0603	2596.5796	2610.2258	2620.6829	2626.0503	2631.7300	2634.9949	2636.8528	2636.4856	2633.7952	2632.6609	2634.0562	2635.5747	2635.5442	2634.9302	2631.7202	2627.1289	2623.1262	2613.4336	2599.7842	2584.9189	2574.6401	2568.3535	2561.1394	2547.9707	2545.3672	2549.3071	2561.4373	2572.5942	2574.1274	2586.4043	2603.6143	2617.5229	2625.4644	2633.0881	2637.6799	2643.9404	2645.1814	2645.3689	2646.4641	2646.5376	2648.7954	2655.3435	2656.0925	2656.0027	2659.5769	2663.5305	2662.2070	2672.4778	2682.2864	2693.3828	2702.6150	2709.0171	2713.5886	2721.2202	2720.6597	2720.2617	2721.9995	2721.5103	2721.5952	2722.8535	2721.3606	2719.9248	2717.7925	2717.5378	2718.0952	2701.8162	2680.7917	2674.7522	2670.4827	2663.0242	2654.4604	2650.6028	2660.7419	2668.1580	2680.7036	2689.8340	2694.0039	2689.4204	2688.7188	2703.3967	2740.9839	2733.2205	2735.3511	2728.7695	2725.8125	2729.3884	2742.3430	2759.4463	2781.4990	2791.5845	2786.6050	2787.5178	2787.7478	2786.8904	2773.3376	2762.7676	2742.5620	2720.4912	2708.5500	2705.5293	2709.0842	2709.6702	2707.7485	2705.6963	2705.7827	2696.9712	2685.5205	2674.9172	2664.1426	2645.6111	2642.5706	2631.3142	2637.4946	2643.4226	2663.7043	2664.7629	2668.4739	2681.6250	2688.1299	2700.1433	2722.3655	2735.0178	2704.2722	2693.6655	2700.9548	2710.4355	2714.8889	2721.3430	2709.4084	2709.0879	2711.6226	2717.4099	2718.6418	2712.3030	2708.7148	2709.4851	2708.8582	2707.7126	2707.9497	2709.0227	2710.5313	2706.9248	2710.3628	2707.8208	2696.3252	2685.0632	2670.5657	2651.0618	2627.0989	2609.1658	2591.8723	2573.1001	2566.7681	2561.9634	2554.2808	2545.7048	2532.2012	2522.8733	2532.7566	2547.4968	2556.7375	2570.4077	2558.1978	2549.8850	2547.2048	2540.1189	2535.4548	2525.9929	2512.1304	2497.4731	2484.7585	2473.3250	2465.6868	2458.1042	2452.1169	2447.7014	2441.1482	2430.4246	2421.7207	2413.9534	2401.5259	2391.7690	2398.2747	2402.3496	2410.8350	2410.9531	2409.2046	2410.2544	2406.6423	2394.7837	2378.6814	2363.5486	2364.3750	2379.0295
2593.3083	2590.8181	2586.9050	2573.6809	2564.9797	2586.4451	2604.5552	2620.6870	2628.7891	2634.1289	2637.5325	2641.0530	2640.5940	2638.1003	2634.6587	2633.0015	2632.9302	2633.4133	2634.2334	2633.6819	2630.8706	2627.6311	2623.7749	2616.2439	2607.2000	2596.9685	2586.1096	2575.5481	2568.6956	2560.3250	2546.2122	2555.7056	2555.4868	2565.3748	2574.2642	2584.2026	2600.0222	2612.3281	2619.5020	2621.2891	2625.8562	2631.0347	2638.3142	2643.5471	2651.6306	2657.6362	2664.0156	2669.9526	2670.7271	2670.2483	2674.9790	2680.6157	2672.5632	2675.1343	2679.9263	2691.7944	2703.0178	2706.5925	2711.9622	2717.3674	2722.3135	2724.7637	2727.5627	2729.2620	2732.4639	2734.5308	2734.3879	2733.5005	2726.6287	2720.1648	2711.8967	2696.8127	2693.3638	2697.3840	2690.6289	2675.4207	2663.0952	2655.6165	2660.4753	2666.9700	2677.0933	2692.8792	2714.3318	2713.3647	2700.7180	2695.2083	2712.5281	2732.1614	2742.1838	2739.0376	2735.4238	2737.3291	2749.3179	2765.0093	2784.9368	2792.2834	2791.6135	2790.5378	2790.8220	2791.4028	2783.2480	2769.2070	2755.1462	2744.1228	2730.2656	2721.1863	2724.0625	2722.4119	2722.8245	2722.1440	2719.0615	2714.4470	2703.2751	2690.7246	2676.5088	2657.5029	2654.1746	2648.7036	2641.0334	2641.2900	2644.6460	2651.7732	2661.9714	2669.2134	2681.3982	2695.8499	2717.2241	2749.1082	2707.0051	2692.5181	2689.0920	2700.3330	2708.9182	2714.1282	2712.0591	2711.0720	2710.7739	2711.7307	2711.5952	2711.6243	2713.0500	2710.9436	2708.1104	2708.7773	2707.4563	2706.5022	2706.2256	2706.5017	2706.8132	2705.8474	2702.2332	2697.5173	2677.9399	2660.0220	2636.9331	2614.5730	2600.9138	2594.0942	2583.4001	2574.1035	2560.0579	2546.6882	2533.7300	2529.3447	2541.9185	2551.4714	2556.3403	2563.3359	2555.3154	2545.9800	2540.1633	2534.1343	2529.8467	2519.0332	2501.1887	2487.7332	2477.1536	2468.1328	2461.2886	2455.0994	2450.0522	2445.6750	2440.7046	2431.5752	2419.8550	2408.2136	2397.5862	2403.6738	2417.6301	2414.5457	2425.8999	2434.9727	2431.6240	2423.9324	2411.5728	2400.4580	2390.7290	2379.5337	2361.8770	2360.3169
2603.6484	2599.1262	2592.4512	2575.1084	2569.5195	2590.4548	2609.5466	2630.3091	2638.3865	2641.7952	2641.6873	2641.7568	2640.4790	2639.0208	2635.4075	2633.1492	2631.9490	2633.6157	2636.9419	2632.5281	2629.4402	2625.8413	2622.4614	2618.0833	2605.2461	2594.6006	2577.9670	2575.9338	2567.2827	2554.7271	2547.8406	2559.6211	2556.8655	2561.6323	2567.4958	2575.1504	2586.4434	2593.0488	2600.0029	2606.0789	2613.9834	2622.9021	2630.9453	2640.2273	2649.8855	2660.4458	2670.4819	2680.2676	2682.2527	2683.4529	2686.4604	2684.3311	2681.9314	2684.0757	2693.5088	2693.6846	2695.1050	2707.9915	2717.4590	2721.9216	2727.3135	2729.0083	2731.9102	2735.2537	2741.0620	2745.5522	2745.8901	2743.1880	2734.9202	2724.5315	2713.0977	2714.9019	2716.4841	2719.6807	2710.4939	2688.7229	2671.5422	2666.4592	2665.5334	2671.2429	2679.6990	2689.6836	2708.7642	2730.9558	2715.4209	2702.8723	2702.5669	2719.7302	2738.3145	2743.5505	2749.8914	2747.3667	2758.6731	2777.4771	2794.8098	2801.7266	2794.7180	2793.5132	2793.6099	2790.5513	2783.1877	2773.1523	2769.9380	2763.6663	2751.5098	2743.5820	2742.8323	2738.6570	2733.4465	2732.7588	2730.8445	2723.9927	2715.6416	2703.0503	2683.4326	2663.8250	2666.9180	2660.7534	2652.4260	2646.3115	2645.2366	2648.6111	2653.8301	2664.2761	2674.3101	2687.7495	2707.1787	2723.9729	2706.3247	2688.7656	2686.0278	2689.1841	2697.4172	2706.6641	2712.6096	2714.7031	2713.4399	2711.7935	2712.2119	2712.4248	2713.0779	2712.8596	2710.5945	2706.6736	2704.6702	2701.5752	2699.7363	2696.8494	2696.8843	2698.7756	2695.2439	2689.7373	2679.0872	2662.4556	2646.6091	2628.2805	2616.4712	2603.9570	2590.3801	2578.0771	2564.1731	2549.7886	2536.3625	2538.8975	2548.7202	2553.3252	2554.8628	2554.4094	2552.1865	2544.7563	2536.1470	2528.1409	2522.2275	2509.8433	2493.8184	2480.3494	2469.8594	2461.6650	2456.7051	2451.1533	2445.8408	2440.8711	2439.0364	2433.3433	2424.0852	2412.2432	2398.8452	2414.0149	2422.3796	2422.5745	2426.5981	2434.5127	2440.3811	2434.0933	2420.7532	2406.9863	2398.4028	2390.3367	2380.3376	2364.6382
